ply
format ascii 1.0
comment generated by OnePiece
element vertex 1415
property double x
property double y
property double z
property double nx
property double ny
property double nz
end_header
-0.078989 1.44637 -0.38236 0 0 0 
-0.172739 1.35262 -0.28861 0 0 0 
-0.078989 1.35262 -0.28861 0 0 0 
-0.172739 1.44637 -0.28861 0 0 0 
-0.078989 1.44637 -0.28861 0 0 0 
-0.360239 1.54012 -0.38236 0 0 0 
-0.266489 1.54012 -0.38236 0 0 0 
-0.360239 1.63387 -0.38236 0 0 0 
-0.266489 1.63387 -0.38236 0 0 0 
-0.360239 1.54012 -0.28861 0 0 0 
-0.266489 1.54012 -0.28861 0 0 0 
-0.360239 1.63387 -0.28861 0 0 0 
-0.266489 1.63387 -0.28861 0 0 0 
-0.172739 1.54012 -0.38236 0 0 0 
-0.078989 1.54012 -0.38236 0 0 0 
-0.172739 1.63387 -0.38236 0 0 0 
-0.078989 1.63387 -0.38236 0 0 0 
-0.172739 1.54012 -0.28861 0 0 0 
-0.078989 1.54012 -0.28861 0 0 0 
-0.172739 1.63387 -0.28861 0 0 0 
-0.078989 1.63387 -0.28861 0 0 0 
-0.688364 1.0245 -0.147985 0 0 0 
-0.547739 0.977621 -0.19486 0 0 0 
-0.453989 0.977621 -0.19486 0 0 0 
-0.547739 1.07137 -0.19486 0 0 0 
-0.453989 1.07137 -0.19486 0 0 0 
-0.547739 0.977621 -0.10111 0 0 0 
-0.453989 0.977621 -0.10111 0 0 0 
-0.547739 1.07137 -0.10111 0 0 0 
-0.453989 1.07137 -0.10111 0 0 0 
-0.735239 1.16512 -0.19486 0 0 0 
-0.641489 1.16512 -0.19486 0 0 0 
-0.735239 1.25887 -0.19486 0 0 0 
-0.641489 1.25887 -0.19486 0 0 0 
-0.735239 1.16512 -0.10111 0 0 0 
-0.641489 1.16512 -0.10111 0 0 0 
-0.735239 1.25887 -0.10111 0 0 0 
-0.641489 1.25887 -0.10111 0 0 0 
-0.547739 1.16512 -0.19486 0 0 0 
-0.453989 1.16512 -0.19486 0 0 0 
-0.547739 1.25887 -0.19486 0 0 0 
-0.453989 1.25887 -0.19486 0 0 0 
-0.547739 1.16512 -0.10111 0 0 0 
-0.453989 1.16512 -0.10111 0 0 0 
-0.547739 1.25887 -0.10111 0 0 0 
-0.453989 1.25887 -0.10111 0 0 0 
-0.688364 1.0245 0.0395145 0 0 0 
-0.547739 0.977621 -0.00736045 0 0 0 
-0.453989 0.977621 -0.00736045 0 0 0 
-0.547739 1.07137 -0.00736045 0 0 0 
-0.453989 1.07137 -0.00736045 0 0 0 
-0.547739 0.977621 0.0863895 0 0 0 
-0.453989 0.977621 0.0863895 0 0 0 
-0.547739 1.07137 0.0863895 0 0 0 
-0.453989 1.07137 0.0863895 0 0 0 
-0.735239 1.16512 -0.00736045 0 0 0 
-0.641489 1.16512 -0.00736045 0 0 0 
-0.735239 1.25887 -0.00736045 0 0 0 
-0.641489 1.25887 -0.00736045 0 0 0 
-0.735239 1.16512 0.0863895 0 0 0 
-0.641489 1.16512 0.0863895 0 0 0 
-0.735239 1.25887 0.0863895 0 0 0 
-0.641489 1.25887 0.0863895 0 0 0 
-0.547739 1.16512 -0.00736045 0 0 0 
-0.453989 1.16512 -0.00736045 0 0 0 
-0.547739 1.25887 -0.00736045 0 0 0 
-0.453989 1.25887 -0.00736045 0 0 0 
-0.547739 1.16512 0.0863895 0 0 0 
-0.453989 1.16512 0.0863895 0 0 0 
-0.547739 1.25887 0.0863895 0 0 0 
-0.453989 1.25887 0.0863895 0 0 0 
-0.360239 0.977621 -0.19486 0 0 0 
-0.266489 0.977621 -0.19486 0 0 0 
-0.360239 1.07137 -0.19486 0 0 0 
-0.266489 1.07137 -0.19486 0 0 0 
-0.360239 0.977621 -0.10111 0 0 0 
-0.266489 0.977621 -0.10111 0 0 0 
-0.360239 1.07137 -0.10111 0 0 0 
-0.266489 1.07137 -0.10111 0 0 0 
-0.172739 0.977621 -0.19486 0 0 0 
-0.078989 0.977621 -0.19486 0 0 0 
-0.172739 1.07137 -0.19486 0 0 0 
-0.078989 1.07137 -0.19486 0 0 0 
-0.172739 0.977621 -0.10111 0 0 0 
-0.078989 0.977621 -0.10111 0 0 0 
-0.172739 1.07137 -0.10111 0 0 0 
-0.078989 1.07137 -0.10111 0 0 0 
-0.360239 1.16512 -0.19486 0 0 0 
-0.266489 1.16512 -0.19486 0 0 0 
-0.360239 1.25887 -0.19486 0 0 0 
-0.266489 1.25887 -0.19486 0 0 0 
-0.360239 1.16512 -0.10111 0 0 0 
-0.266489 1.16512 -0.10111 0 0 0 
-0.360239 1.25887 -0.10111 0 0 0 
-0.266489 1.25887 -0.10111 0 0 0 
-0.125864 1.212 -0.147985 0 0 0 
-0.360239 0.977621 -0.00736045 0 0 0 
-0.266489 0.977621 -0.00736045 0 0 0 
-0.360239 1.07137 -0.00736045 0 0 0 
-0.266489 1.07137 -0.00736045 0 0 0 
-0.360239 0.977621 0.0863895 0 0 0 
-0.266489 0.977621 0.0863895 0 0 0 
-0.360239 1.07137 0.0863895 0 0 0 
-0.266489 1.07137 0.0863895 0 0 0 
-0.125864 1.0245 0.0395145 0 0 0 
-0.313364 1.212 0.0395145 0 0 0 
-0.125864 1.212 0.0395145 0 0 0 
-0.735239 1.35262 -0.19486 0 0 0 
-0.641489 1.35262 -0.19486 0 0 0 
-0.735239 1.44637 -0.19486 0 0 0 
-0.641489 1.44637 -0.19486 0 0 0 
-0.735239 1.35262 -0.10111 0 0 0 
-0.641489 1.35262 -0.10111 0 0 0 
-0.735239 1.44637 -0.10111 0 0 0 
-0.641489 1.44637 -0.10111 0 0 0 
-0.547739 1.35262 -0.19486 0 0 0 
-0.453989 1.35262 -0.19486 0 0 0 
-0.547739 1.44637 -0.19486 0 0 0 
-0.453989 1.44637 -0.19486 0 0 0 
-0.547739 1.35262 -0.10111 0 0 0 
-0.453989 1.35262 -0.10111 0 0 0 
-0.547739 1.44637 -0.10111 0 0 0 
-0.453989 1.44637 -0.10111 0 0 0 
-0.735239 1.54012 -0.19486 0 0 0 
-0.641489 1.54012 -0.19486 0 0 0 
-0.735239 1.63387 -0.19486 0 0 0 
-0.641489 1.63387 -0.19486 0 0 0 
-0.735239 1.54012 -0.10111 0 0 0 
-0.641489 1.54012 -0.10111 0 0 0 
-0.735239 1.63387 -0.10111 0 0 0 
-0.641489 1.63387 -0.10111 0 0 0 
-0.547739 1.54012 -0.19486 0 0 0 
-0.453989 1.54012 -0.19486 0 0 0 
-0.547739 1.63387 -0.19486 0 0 0 
-0.453989 1.63387 -0.19486 0 0 0 
-0.547739 1.54012 -0.10111 0 0 0 
-0.453989 1.54012 -0.10111 0 0 0 
-0.547739 1.63387 -0.10111 0 0 0 
-0.453989 1.63387 -0.10111 0 0 0 
-0.735239 1.35262 -0.00736045 0 0 0 
-0.641489 1.35262 -0.00736045 0 0 0 
-0.735239 1.44637 -0.00736045 0 0 0 
-0.641489 1.44637 -0.00736045 0 0 0 
-0.735239 1.35262 0.0863895 0 0 0 
-0.641489 1.35262 0.0863895 0 0 0 
-0.735239 1.44637 0.0863895 0 0 0 
-0.641489 1.44637 0.0863895 0 0 0 
-0.547739 1.35262 -0.00736045 0 0 0 
-0.453989 1.35262 -0.00736045 0 0 0 
-0.547739 1.44637 -0.00736045 0 0 0 
-0.453989 1.44637 -0.00736045 0 0 0 
-0.547739 1.35262 0.0863895 0 0 0 
-0.453989 1.35262 0.0863895 0 0 0 
-0.547739 1.44637 0.0863895 0 0 0 
-0.453989 1.44637 0.0863895 0 0 0 
-0.735239 1.54012 -0.00736045 0 0 0 
-0.641489 1.54012 -0.00736045 0 0 0 
-0.735239 1.63387 -0.00736045 0 0 0 
-0.641489 1.63387 -0.00736045 0 0 0 
-0.735239 1.54012 0.0863895 0 0 0 
-0.641489 1.54012 0.0863895 0 0 0 
-0.735239 1.63387 0.0863895 0 0 0 
-0.641489 1.63387 0.0863895 0 0 0 
-0.547739 1.54012 -0.00736045 0 0 0 
-0.453989 1.54012 -0.00736045 0 0 0 
-0.547739 1.63387 -0.00736045 0 0 0 
-0.453989 1.63387 -0.00736045 0 0 0 
-0.547739 1.54012 0.0863895 0 0 0 
-0.453989 1.54012 0.0863895 0 0 0 
-0.547739 1.63387 0.0863895 0 0 0 
-0.453989 1.63387 0.0863895 0 0 0 
-0.360239 1.35262 -0.19486 0 0 0 
-0.266489 1.35262 -0.19486 0 0 0 
-0.360239 1.44637 -0.19486 0 0 0 
-0.266489 1.44637 -0.19486 0 0 0 
-0.360239 1.35262 -0.10111 0 0 0 
-0.266489 1.35262 -0.10111 0 0 0 
-0.360239 1.44637 -0.10111 0 0 0 
-0.266489 1.44637 -0.10111 0 0 0 
-0.125864 1.3995 -0.147985 0 0 0 
-0.360239 1.54012 -0.19486 0 0 0 
-0.266489 1.54012 -0.19486 0 0 0 
-0.360239 1.63387 -0.19486 0 0 0 
-0.266489 1.63387 -0.19486 0 0 0 
-0.360239 1.54012 -0.10111 0 0 0 
-0.266489 1.54012 -0.10111 0 0 0 
-0.360239 1.63387 -0.10111 0 0 0 
-0.266489 1.63387 -0.10111 0 0 0 
-0.172739 1.54012 -0.19486 0 0 0 
-0.078989 1.54012 -0.19486 0 0 0 
-0.172739 1.63387 -0.19486 0 0 0 
-0.078989 1.63387 -0.19486 0 0 0 
-0.172739 1.54012 -0.10111 0 0 0 
-0.078989 1.54012 -0.10111 0 0 0 
-0.172739 1.63387 -0.10111 0 0 0 
-0.078989 1.63387 -0.10111 0 0 0 
-0.313364 1.3995 0.0395145 0 0 0 
-0.125864 1.3995 0.0395145 0 0 0 
-0.360239 1.54012 -0.00736045 0 0 0 
-0.266489 1.54012 -0.00736045 0 0 0 
-0.360239 1.63387 -0.00736045 0 0 0 
-0.266489 1.63387 -0.00736045 0 0 0 
-0.360239 1.54012 0.0863895 0 0 0 
-0.266489 1.54012 0.0863895 0 0 0 
-0.360239 1.63387 0.0863895 0 0 0 
-0.266489 1.63387 0.0863895 0 0 0 
-0.172739 1.54012 -0.00736045 0 0 0 
-0.078989 1.54012 -0.00736045 0 0 0 
-0.172739 1.63387 -0.00736045 0 0 0 
-0.078989 1.63387 -0.00736045 0 0 0 
-0.172739 1.54012 0.0863895 0 0 0 
-0.078989 1.54012 0.0863895 0 0 0 
-0.172739 1.63387 0.0863895 0 0 0 
-0.078989 1.63387 0.0863895 0 0 0 
-1.15711 2.05575 -0.241735 0 0 0 
-0.594614 1.86825 -0.429235 0 0 0 
-0.219614 1.86825 -0.429235 0 0 0 
-0.594614 2.24325 -0.429235 0 0 0 
-0.219614 2.24325 -0.429235 0 0 0 
-0.594614 1.86825 -0.0542355 0 0 0 
-0.313364 1.7745 -0.147985 0 0 0 
-0.172739 1.72762 -0.19486 0 0 0 
-0.078989 1.72762 -0.19486 0 0 0 
-0.172739 1.82137 -0.19486 0 0 0 
-0.078989 1.82137 -0.19486 0 0 0 
-0.172739 1.72762 -0.10111 0 0 0 
-0.078989 1.72762 -0.10111 0 0 0 
-0.172739 1.82137 -0.10111 0 0 0 
-0.078989 1.82137 -0.10111 0 0 0 
-0.313364 1.962 -0.147985 0 0 0 
-0.125864 1.962 -0.147985 0 0 0 
-0.360239 1.72762 -0.00736045 0 0 0 
-0.266489 1.72762 -0.00736045 0 0 0 
-0.360239 1.82137 -0.00736045 0 0 0 
-0.266489 1.82137 -0.00736045 0 0 0 
-0.360239 1.72762 0.0863895 0 0 0 
-0.266489 1.72762 0.0863895 0 0 0 
-0.360239 1.82137 0.0863895 0 0 0 
-0.266489 1.82137 0.0863895 0 0 0 
-0.172739 1.72762 -0.00736045 0 0 0 
-0.078989 1.72762 -0.00736045 0 0 0 
-0.172739 1.82137 -0.00736045 0 0 0 
-0.078989 1.82137 -0.00736045 0 0 0 
-0.172739 1.72762 0.0863895 0 0 0 
-0.078989 1.72762 0.0863895 0 0 0 
-0.172739 1.82137 0.0863895 0 0 0 
-0.078989 1.82137 0.0863895 0 0 0 
-0.313364 1.962 0.0395145 0 0 0 
-0.125864 1.962 0.0395145 0 0 0 
-0.594614 2.24325 -0.0542355 0 0 0 
-0.219614 2.24325 -0.0542355 0 0 0 
0.342886 1.30575 -0.991735 0 0 0 
1.09289 1.30575 -0.991735 0 0 0 
0.342886 2.05575 -0.991735 0 0 0 
1.09289 2.05575 -0.991735 0 0 0 
0.061636 1.0245 -0.522985 0 0 0 
0.249136 1.0245 -0.522985 0 0 0 
0.061636 1.212 -0.522985 0 0 0 
0.249136 1.212 -0.522985 0 0 0 
0.014761 0.977621 -0.38236 0 0 0 
0.108511 0.977621 -0.38236 0 0 0 
0.014761 1.07137 -0.38236 0 0 0 
0.108511 1.07137 -0.38236 0 0 0 
0.014761 0.977621 -0.28861 0 0 0 
0.108511 0.977621 -0.28861 0 0 0 
0.014761 1.07137 -0.28861 0 0 0 
0.108511 1.07137 -0.28861 0 0 0 
0.202261 0.977621 -0.38236 0 0 0 
0.296011 0.977621 -0.38236 0 0 0 
0.202261 1.07137 -0.38236 0 0 0 
0.296011 1.07137 -0.38236 0 0 0 
0.202261 0.977621 -0.28861 0 0 0 
0.296011 0.977621 -0.28861 0 0 0 
0.202261 1.07137 -0.28861 0 0 0 
0.296011 1.07137 -0.28861 0 0 0 
0.014761 1.16512 -0.38236 0 0 0 
0.108511 1.16512 -0.38236 0 0 0 
0.014761 1.25887 -0.38236 0 0 0 
0.108511 1.25887 -0.38236 0 0 0 
0.014761 1.16512 -0.28861 0 0 0 
0.108511 1.16512 -0.28861 0 0 0 
0.014761 1.25887 -0.28861 0 0 0 
0.108511 1.25887 -0.28861 0 0 0 
0.202261 1.16512 -0.38236 0 0 0 
0.296011 1.16512 -0.38236 0 0 0 
0.202261 1.25887 -0.38236 0 0 0 
0.296011 1.25887 -0.38236 0 0 0 
0.202261 1.16512 -0.28861 0 0 0 
0.296011 1.16512 -0.28861 0 0 0 
0.202261 1.25887 -0.28861 0 0 0 
0.296011 1.25887 -0.28861 0 0 0 
0.436636 1.0245 -0.522985 0 0 0 
0.624136 1.0245 -0.522985 0 0 0 
0.436636 1.212 -0.522985 0 0 0 
0.624136 1.212 -0.522985 0 0 0 
0.389761 0.977621 -0.38236 0 0 0 
0.483511 0.977621 -0.38236 0 0 0 
0.389761 1.07137 -0.38236 0 0 0 
0.483511 1.07137 -0.38236 0 0 0 
0.389761 0.977621 -0.28861 0 0 0 
0.483511 0.977621 -0.28861 0 0 0 
0.389761 1.07137 -0.28861 0 0 0 
0.483511 1.07137 -0.28861 0 0 0 
0.624136 1.0245 -0.335485 0 0 0 
0.389761 1.16512 -0.38236 0 0 0 
0.483511 1.16512 -0.38236 0 0 0 
0.389761 1.25887 -0.38236 0 0 0 
0.483511 1.25887 -0.38236 0 0 0 
0.389761 1.16512 -0.28861 0 0 0 
0.483511 1.16512 -0.28861 0 0 0 
0.389761 1.25887 -0.28861 0 0 0 
0.483511 1.25887 -0.28861 0 0 0 
0.624136 1.212 -0.335485 0 0 0 
0.061636 1.3995 -0.522985 0 0 0 
0.249136 1.3995 -0.522985 0 0 0 
0.061636 1.587 -0.522985 0 0 0 
0.249136 1.587 -0.522985 0 0 0 
0.014761 1.35262 -0.38236 0 0 0 
0.108511 1.35262 -0.38236 0 0 0 
0.014761 1.44637 -0.38236 0 0 0 
0.108511 1.44637 -0.38236 0 0 0 
0.014761 1.35262 -0.28861 0 0 0 
0.108511 1.35262 -0.28861 0 0 0 
0.014761 1.44637 -0.28861 0 0 0 
0.108511 1.44637 -0.28861 0 0 0 
0.202261 1.35262 -0.38236 0 0 0 
0.296011 1.35262 -0.38236 0 0 0 
0.202261 1.44637 -0.38236 0 0 0 
0.296011 1.44637 -0.38236 0 0 0 
0.202261 1.35262 -0.28861 0 0 0 
0.296011 1.35262 -0.28861 0 0 0 
0.202261 1.44637 -0.28861 0 0 0 
0.296011 1.44637 -0.28861 0 0 0 
0.014761 1.54012 -0.38236 0 0 0 
0.108511 1.54012 -0.38236 0 0 0 
0.014761 1.63387 -0.38236 0 0 0 
0.108511 1.63387 -0.38236 0 0 0 
0.014761 1.54012 -0.28861 0 0 0 
0.108511 1.54012 -0.28861 0 0 0 
0.014761 1.63387 -0.28861 0 0 0 
0.108511 1.63387 -0.28861 0 0 0 
0.202261 1.54012 -0.38236 0 0 0 
0.296011 1.54012 -0.38236 0 0 0 
0.202261 1.63387 -0.38236 0 0 0 
0.296011 1.63387 -0.38236 0 0 0 
0.202261 1.54012 -0.28861 0 0 0 
0.296011 1.54012 -0.28861 0 0 0 
0.202261 1.63387 -0.28861 0 0 0 
0.296011 1.63387 -0.28861 0 0 0 
0.436636 1.3995 -0.522985 0 0 0 
0.624136 1.3995 -0.522985 0 0 0 
0.436636 1.587 -0.522985 0 0 0 
0.624136 1.587 -0.522985 0 0 0 
0.389761 1.35262 -0.38236 0 0 0 
0.483511 1.35262 -0.38236 0 0 0 
0.389761 1.44637 -0.38236 0 0 0 
0.483511 1.44637 -0.38236 0 0 0 
0.389761 1.35262 -0.28861 0 0 0 
0.483511 1.35262 -0.28861 0 0 0 
0.389761 1.44637 -0.28861 0 0 0 
0.483511 1.44637 -0.28861 0 0 0 
0.624136 1.3995 -0.335485 0 0 0 
0.436636 1.587 -0.335485 0 0 0 
0.624136 1.587 -0.335485 0 0 0 
0.061636 1.0245 -0.147985 0 0 0 
0.202261 0.977621 -0.19486 0 0 0 
0.296011 0.977621 -0.19486 0 0 0 
0.202261 1.07137 -0.19486 0 0 0 
0.296011 1.07137 -0.19486 0 0 0 
0.202261 0.977621 -0.10111 0 0 0 
0.296011 0.977621 -0.10111 0 0 0 
0.202261 1.07137 -0.10111 0 0 0 
0.296011 1.07137 -0.10111 0 0 0 
0.061636 1.212 -0.147985 0 0 0 
0.249136 1.212 -0.147985 0 0 0 
0.061636 1.0245 0.0395145 0 0 0 
0.249136 1.0245 0.0395145 0 0 0 
0.061636 1.212 0.0395145 0 0 0 
0.249136 1.212 0.0395145 0 0 0 
0.389761 0.977621 -0.19486 0 0 0 
0.483511 0.977621 -0.19486 0 0 0 
0.389761 1.07137 -0.19486 0 0 0 
0.483511 1.07137 -0.19486 0 0 0 
0.389761 0.977621 -0.10111 0 0 0 
0.483511 0.977621 -0.10111 0 0 0 
0.389761 1.07137 -0.10111 0 0 0 
0.483511 1.07137 -0.10111 0 0 0 
0.624136 1.0245 -0.147985 0 0 0 
0.389761 1.16512 -0.19486 0 0 0 
0.483511 1.16512 -0.19486 0 0 0 
0.389761 1.25887 -0.19486 0 0 0 
0.483511 1.25887 -0.19486 0 0 0 
0.389761 1.16512 -0.10111 0 0 0 
0.483511 1.16512 -0.10111 0 0 0 
0.389761 1.25887 -0.10111 0 0 0 
0.483511 1.25887 -0.10111 0 0 0 
0.624136 1.212 -0.147985 0 0 0 
0.389761 0.977621 -0.00736045 0 0 0 
0.483511 0.977621 -0.00736045 0 0 0 
0.389761 1.07137 -0.00736045 0 0 0 
0.483511 1.07137 -0.00736045 0 0 0 
0.389761 0.977621 0.0863895 0 0 0 
0.483511 0.977621 0.0863895 0 0 0 
0.389761 1.07137 0.0863895 0 0 0 
0.483511 1.07137 0.0863895 0 0 0 
0.577261 0.977621 -0.00736045 0 0 0 
0.671011 0.977621 -0.00736045 0 0 0 
0.577261 1.07137 -0.00736045 0 0 0 
0.671011 1.07137 -0.00736045 0 0 0 
0.577261 0.977621 0.0863895 0 0 0 
0.671011 0.977621 0.0863895 0 0 0 
0.577261 1.07137 0.0863895 0 0 0 
0.671011 1.07137 0.0863895 0 0 0 
0.389761 1.16512 -0.00736045 0 0 0 
0.483511 1.16512 -0.00736045 0 0 0 
0.389761 1.25887 -0.00736045 0 0 0 
0.483511 1.25887 -0.00736045 0 0 0 
0.389761 1.16512 0.0863895 0 0 0 
0.483511 1.16512 0.0863895 0 0 0 
0.389761 1.25887 0.0863895 0 0 0 
0.483511 1.25887 0.0863895 0 0 0 
0.577261 1.16512 -0.00736045 0 0 0 
0.671011 1.16512 -0.00736045 0 0 0 
0.577261 1.25887 -0.00736045 0 0 0 
0.671011 1.25887 -0.00736045 0 0 0 
0.577261 1.16512 0.0863895 0 0 0 
0.671011 1.16512 0.0863895 0 0 0 
0.577261 1.25887 0.0863895 0 0 0 
0.671011 1.25887 0.0863895 0 0 0 
0.061636 1.3995 -0.147985 0 0 0 
0.202261 1.35262 -0.19486 0 0 0 
0.296011 1.35262 -0.19486 0 0 0 
0.202261 1.44637 -0.19486 0 0 0 
0.296011 1.44637 -0.19486 0 0 0 
0.202261 1.35262 -0.10111 0 0 0 
0.296011 1.35262 -0.10111 0 0 0 
0.202261 1.44637 -0.10111 0 0 0 
0.296011 1.44637 -0.10111 0 0 0 
0.014761 1.54012 -0.19486 0 0 0 
0.108511 1.54012 -0.19486 0 0 0 
0.014761 1.63387 -0.19486 0 0 0 
0.108511 1.63387 -0.19486 0 0 0 
0.014761 1.54012 -0.10111 0 0 0 
0.108511 1.54012 -0.10111 0 0 0 
0.014761 1.63387 -0.10111 0 0 0 
0.108511 1.63387 -0.10111 0 0 0 
0.202261 1.54012 -0.19486 0 0 0 
0.296011 1.54012 -0.19486 0 0 0 
0.202261 1.63387 -0.19486 0 0 0 
0.296011 1.63387 -0.19486 0 0 0 
0.202261 1.54012 -0.10111 0 0 0 
0.296011 1.54012 -0.10111 0 0 0 
0.202261 1.63387 -0.10111 0 0 0 
0.296011 1.63387 -0.10111 0 0 0 
0.061636 1.3995 0.0395145 0 0 0 
0.249136 1.3995 0.0395145 0 0 0 
0.061636 1.587 0.0395145 0 0 0 
0.249136 1.587 0.0395145 0 0 0 
0.389761 1.35262 -0.19486 0 0 0 
0.483511 1.35262 -0.19486 0 0 0 
0.389761 1.44637 -0.19486 0 0 0 
0.483511 1.44637 -0.19486 0 0 0 
0.389761 1.35262 -0.10111 0 0 0 
0.483511 1.35262 -0.10111 0 0 0 
0.389761 1.44637 -0.10111 0 0 0 
0.483511 1.44637 -0.10111 0 0 0 
0.624136 1.3995 -0.147985 0 0 0 
0.389761 1.54012 -0.19486 0 0 0 
0.483511 1.54012 -0.19486 0 0 0 
0.389761 1.63387 -0.19486 0 0 0 
0.483511 1.63387 -0.19486 0 0 0 
0.389761 1.54012 -0.10111 0 0 0 
0.483511 1.54012 -0.10111 0 0 0 
0.389761 1.63387 -0.10111 0 0 0 
0.483511 1.63387 -0.10111 0 0 0 
0.577261 1.54012 -0.19486 0 0 0 
0.671011 1.54012 -0.19486 0 0 0 
0.577261 1.63387 -0.19486 0 0 0 
0.671011 1.63387 -0.19486 0 0 0 
0.577261 1.54012 -0.10111 0 0 0 
0.671011 1.54012 -0.10111 0 0 0 
0.577261 1.63387 -0.10111 0 0 0 
0.671011 1.63387 -0.10111 0 0 0 
0.389761 1.35262 -0.00736045 0 0 0 
0.483511 1.35262 -0.00736045 0 0 0 
0.389761 1.44637 -0.00736045 0 0 0 
0.483511 1.44637 -0.00736045 0 0 0 
0.389761 1.35262 0.0863895 0 0 0 
0.483511 1.35262 0.0863895 0 0 0 
0.389761 1.44637 0.0863895 0 0 0 
0.483511 1.44637 0.0863895 0 0 0 
0.577261 1.35262 -0.00736045 0 0 0 
0.671011 1.35262 -0.00736045 0 0 0 
0.577261 1.44637 -0.00736045 0 0 0 
0.671011 1.44637 -0.00736045 0 0 0 
0.577261 1.35262 0.0863895 0 0 0 
0.671011 1.35262 0.0863895 0 0 0 
0.577261 1.44637 0.0863895 0 0 0 
0.671011 1.44637 0.0863895 0 0 0 
0.436636 1.587 0.0395145 0 0 0 
0.577261 1.54012 -0.00736045 0 0 0 
0.671011 1.54012 -0.00736045 0 0 0 
0.577261 1.63387 -0.00736045 0 0 0 
0.671011 1.63387 -0.00736045 0 0 0 
0.577261 1.54012 0.0863895 0 0 0 
0.671011 1.54012 0.0863895 0 0 0 
0.577261 1.63387 0.0863895 0 0 0 
0.671011 1.63387 0.0863895 0 0 0 
1.09289 1.30575 -0.241735 0 0 0 
0.155386 1.86825 -0.429235 0 0 0 
0.530386 1.86825 -0.429235 0 0 0 
0.155386 2.24325 -0.429235 0 0 0 
0.530386 2.24325 -0.429235 0 0 0 
0.014761 1.72762 -0.19486 0 0 0 
0.108511 1.72762 -0.19486 0 0 0 
0.014761 1.82137 -0.19486 0 0 0 
0.108511 1.82137 -0.19486 0 0 0 
0.014761 1.72762 -0.10111 0 0 0 
0.108511 1.72762 -0.10111 0 0 0 
0.014761 1.82137 -0.10111 0 0 0 
0.108511 1.82137 -0.10111 0 0 0 
0.202261 1.72762 -0.19486 0 0 0 
0.296011 1.72762 -0.19486 0 0 0 
0.202261 1.82137 -0.19486 0 0 0 
0.296011 1.82137 -0.19486 0 0 0 
0.202261 1.72762 -0.10111 0 0 0 
0.296011 1.72762 -0.10111 0 0 0 
0.202261 1.82137 -0.10111 0 0 0 
0.296011 1.82137 -0.10111 0 0 0 
0.061636 1.962 -0.147985 0 0 0 
0.249136 1.962 -0.147985 0 0 0 
0.014761 1.72762 -0.00736045 0 0 0 
0.108511 1.72762 -0.00736045 0 0 0 
0.014761 1.82137 -0.00736045 0 0 0 
0.108511 1.82137 -0.00736045 0 0 0 
0.014761 1.72762 0.0863895 0 0 0 
0.108511 1.72762 0.0863895 0 0 0 
0.014761 1.82137 0.0863895 0 0 0 
0.108511 1.82137 0.0863895 0 0 0 
0.202261 1.72762 -0.00736045 0 0 0 
0.296011 1.72762 -0.00736045 0 0 0 
0.202261 1.82137 -0.00736045 0 0 0 
0.296011 1.82137 -0.00736045 0 0 0 
0.202261 1.72762 0.0863895 0 0 0 
0.296011 1.72762 0.0863895 0 0 0 
0.202261 1.82137 0.0863895 0 0 0 
0.296011 1.82137 0.0863895 0 0 0 
0.061636 1.962 0.0395145 0 0 0 
0.249136 1.962 0.0395145 0 0 0 
0.389761 1.72762 -0.19486 0 0 0 
0.483511 1.72762 -0.19486 0 0 0 
0.389761 1.82137 -0.19486 0 0 0 
0.483511 1.82137 -0.19486 0 0 0 
0.389761 1.72762 -0.10111 0 0 0 
0.483511 1.72762 -0.10111 0 0 0 
0.389761 1.82137 -0.10111 0 0 0 
0.483511 1.82137 -0.10111 0 0 0 
0.577261 1.72762 -0.19486 0 0 0 
0.671011 1.72762 -0.19486 0 0 0 
0.577261 1.82137 -0.19486 0 0 0 
0.671011 1.82137 -0.19486 0 0 0 
0.577261 1.72762 -0.10111 0 0 0 
0.671011 1.72762 -0.10111 0 0 0 
0.577261 1.82137 -0.10111 0 0 0 
0.671011 1.82137 -0.10111 0 0 0 
0.436636 1.962 -0.147985 0 0 0 
0.624136 1.962 -0.147985 0 0 0 
0.389761 1.72762 -0.00736045 0 0 0 
0.483511 1.72762 -0.00736045 0 0 0 
0.389761 1.82137 -0.00736045 0 0 0 
0.483511 1.82137 -0.00736045 0 0 0 
0.389761 1.72762 0.0863895 0 0 0 
0.483511 1.72762 0.0863895 0 0 0 
0.389761 1.82137 0.0863895 0 0 0 
0.483511 1.82137 0.0863895 0 0 0 
0.577261 1.72762 -0.00736045 0 0 0 
0.671011 1.72762 -0.00736045 0 0 0 
0.577261 1.82137 -0.00736045 0 0 0 
0.671011 1.82137 -0.00736045 0 0 0 
0.577261 1.72762 0.0863895 0 0 0 
0.671011 1.72762 0.0863895 0 0 0 
0.577261 1.82137 0.0863895 0 0 0 
0.671011 1.82137 0.0863895 0 0 0 
0.389761 1.91512 -0.00736045 0 0 0 
0.483511 1.91512 -0.00736045 0 0 0 
0.389761 2.00887 -0.00736045 0 0 0 
0.483511 2.00887 -0.00736045 0 0 0 
0.389761 1.91512 0.0863895 0 0 0 
0.483511 1.91512 0.0863895 0 0 0 
0.389761 2.00887 0.0863895 0 0 0 
0.483511 2.00887 0.0863895 0 0 0 
0.577261 1.91512 -0.00736045 0 0 0 
0.671011 1.91512 -0.00736045 0 0 0 
0.577261 2.00887 -0.00736045 0 0 0 
0.671011 2.00887 -0.00736045 0 0 0 
0.577261 1.91512 0.0863895 0 0 0 
0.671011 1.91512 0.0863895 0 0 0 
0.577261 2.00887 0.0863895 0 0 0 
0.671011 2.00887 0.0863895 0 0 0 
0.155386 2.24325 -0.0542355 0 0 0 
0.530386 2.24325 -0.0542355 0 0 0 
1.09289 2.05575 -0.241735 0 0 0 
-1.15711 -0.194254 0.508265 0 0 0 
-0.594614 -0.381754 0.320765 0 0 0 
-0.219614 -0.381754 0.320765 0 0 0 
-0.688364 -0.100504 0.227015 0 0 0 
-0.547739 -0.147379 0.18014 0 0 0 
-0.453989 -0.147379 0.18014 0 0 0 
-0.547739 -0.0536289 0.18014 0 0 0 
-0.453989 -0.0536289 0.18014 0 0 0 
-0.547739 -0.147379 0.27389 0 0 0 
-0.453989 -0.147379 0.27389 0 0 0 
-0.547739 -0.0536289 0.27389 0 0 0 
-0.453989 -0.0536289 0.27389 0 0 0 
-0.688364 0.0869961 0.227015 0 0 0 
-0.547739 0.0401211 0.18014 0 0 0 
-0.453989 0.0401211 0.18014 0 0 0 
-0.547739 0.133871 0.18014 0 0 0 
-0.453989 0.133871 0.18014 0 0 0 
-0.547739 0.0401211 0.27389 0 0 0 
-0.453989 0.0401211 0.27389 0 0 0 
-0.547739 0.133871 0.27389 0 0 0 
-0.453989 0.133871 0.27389 0 0 0 
-0.688364 -0.100504 0.414515 0 0 0 
-0.500864 -0.100504 0.414515 0 0 0 
-0.688364 0.0869961 0.414515 0 0 0 
-0.500864 0.0869961 0.414515 0 0 0 
-0.360239 -0.147379 0.18014 0 0 0 
-0.266489 -0.147379 0.18014 0 0 0 
-0.360239 -0.0536289 0.18014 0 0 0 
-0.266489 -0.0536289 0.18014 0 0 0 
-0.360239 -0.147379 0.27389 0 0 0 
-0.266489 -0.147379 0.27389 0 0 0 
-0.360239 -0.0536289 0.27389 0 0 0 
-0.266489 -0.0536289 0.27389 0 0 0 
-0.172739 -0.147379 0.18014 0 0 0 
-0.078989 -0.147379 0.18014 0 0 0 
-0.172739 -0.0536289 0.18014 0 0 0 
-0.078989 -0.0536289 0.18014 0 0 0 
-0.172739 -0.147379 0.27389 0 0 0 
-0.078989 -0.147379 0.27389 0 0 0 
-0.172739 -0.0536289 0.27389 0 0 0 
-0.078989 -0.0536289 0.27389 0 0 0 
-0.360239 0.0401211 0.18014 0 0 0 
-0.266489 0.0401211 0.18014 0 0 0 
-0.360239 0.133871 0.18014 0 0 0 
-0.266489 0.133871 0.18014 0 0 0 
-0.360239 0.0401211 0.27389 0 0 0 
-0.266489 0.0401211 0.27389 0 0 0 
-0.360239 0.133871 0.27389 0 0 0 
-0.266489 0.133871 0.27389 0 0 0 
-0.172739 0.0401211 0.18014 0 0 0 
-0.078989 0.0401211 0.18014 0 0 0 
-0.172739 0.133871 0.18014 0 0 0 
-0.078989 0.133871 0.18014 0 0 0 
-0.172739 0.0401211 0.27389 0 0 0 
-0.078989 0.0401211 0.27389 0 0 0 
-0.172739 0.133871 0.27389 0 0 0 
-0.078989 0.133871 0.27389 0 0 0 
-0.360239 -0.147379 0.36764 0 0 0 
-0.266489 -0.147379 0.36764 0 0 0 
-0.360239 -0.0536289 0.36764 0 0 0 
-0.266489 -0.0536289 0.36764 0 0 0 
-0.360239 -0.147379 0.46139 0 0 0 
-0.266489 -0.147379 0.46139 0 0 0 
-0.360239 -0.0536289 0.46139 0 0 0 
-0.266489 -0.0536289 0.46139 0 0 0 
-0.172739 -0.147379 0.36764 0 0 0 
-0.078989 -0.147379 0.36764 0 0 0 
-0.172739 -0.0536289 0.36764 0 0 0 
-0.078989 -0.0536289 0.36764 0 0 0 
-0.172739 -0.147379 0.46139 0 0 0 
-0.078989 -0.147379 0.46139 0 0 0 
-0.172739 -0.0536289 0.46139 0 0 0 
-0.078989 -0.0536289 0.46139 0 0 0 
-0.360239 0.0401211 0.36764 0 0 0 
-0.266489 0.0401211 0.36764 0 0 0 
-0.360239 0.133871 0.36764 0 0 0 
-0.266489 0.133871 0.36764 0 0 0 
-0.360239 0.0401211 0.46139 0 0 0 
-0.266489 0.0401211 0.46139 0 0 0 
-0.360239 0.133871 0.46139 0 0 0 
-0.266489 0.133871 0.46139 0 0 0 
-0.172739 0.0401211 0.36764 0 0 0 
-0.078989 0.0401211 0.36764 0 0 0 
-0.172739 0.133871 0.36764 0 0 0 
-0.078989 0.133871 0.36764 0 0 0 
-0.172739 0.0401211 0.46139 0 0 0 
-0.078989 0.0401211 0.46139 0 0 0 
-0.172739 0.133871 0.46139 0 0 0 
-0.078989 0.133871 0.46139 0 0 0 
-0.594614 -0.381754 0.695765 0 0 0 
-0.219614 -0.381754 0.695765 0 0 0 
-0.594614 -0.00675393 0.695765 0 0 0 
-0.219614 -0.00675393 0.695765 0 0 0 
-1.15711 0.555746 0.508265 0 0 0 
-0.688364 0.274496 0.227015 0 0 0 
-0.547739 0.227621 0.18014 0 0 0 
-0.453989 0.227621 0.18014 0 0 0 
-0.547739 0.321371 0.18014 0 0 0 
-0.453989 0.321371 0.18014 0 0 0 
-0.547739 0.227621 0.27389 0 0 0 
-0.453989 0.227621 0.27389 0 0 0 
-0.547739 0.321371 0.27389 0 0 0 
-0.453989 0.321371 0.27389 0 0 0 
-0.688364 0.461996 0.227015 0 0 0 
-0.547739 0.415121 0.18014 0 0 0 
-0.453989 0.415121 0.18014 0 0 0 
-0.547739 0.508871 0.18014 0 0 0 
-0.453989 0.508871 0.18014 0 0 0 
-0.547739 0.415121 0.27389 0 0 0 
-0.453989 0.415121 0.27389 0 0 0 
-0.547739 0.508871 0.27389 0 0 0 
-0.453989 0.508871 0.27389 0 0 0 
-0.688364 0.274496 0.414515 0 0 0 
-0.500864 0.274496 0.414515 0 0 0 
-0.688364 0.461996 0.414515 0 0 0 
-0.500864 0.461996 0.414515 0 0 0 
-0.360239 0.227621 0.18014 0 0 0 
-0.266489 0.227621 0.18014 0 0 0 
-0.360239 0.321371 0.18014 0 0 0 
-0.266489 0.321371 0.18014 0 0 0 
-0.360239 0.227621 0.27389 0 0 0 
-0.266489 0.227621 0.27389 0 0 0 
-0.360239 0.321371 0.27389 0 0 0 
-0.266489 0.321371 0.27389 0 0 0 
-0.172739 0.227621 0.18014 0 0 0 
-0.078989 0.227621 0.18014 0 0 0 
-0.172739 0.321371 0.18014 0 0 0 
-0.078989 0.321371 0.18014 0 0 0 
-0.172739 0.227621 0.27389 0 0 0 
-0.078989 0.227621 0.27389 0 0 0 
-0.172739 0.321371 0.27389 0 0 0 
-0.078989 0.321371 0.27389 0 0 0 
-0.360239 0.415121 0.18014 0 0 0 
-0.266489 0.415121 0.18014 0 0 0 
-0.360239 0.508871 0.18014 0 0 0 
-0.266489 0.508871 0.18014 0 0 0 
-0.360239 0.415121 0.27389 0 0 0 
-0.266489 0.415121 0.27389 0 0 0 
-0.360239 0.508871 0.27389 0 0 0 
-0.266489 0.508871 0.27389 0 0 0 
-0.172739 0.415121 0.18014 0 0 0 
-0.078989 0.415121 0.18014 0 0 0 
-0.172739 0.508871 0.18014 0 0 0 
-0.078989 0.508871 0.18014 0 0 0 
-0.172739 0.415121 0.27389 0 0 0 
-0.078989 0.415121 0.27389 0 0 0 
-0.172739 0.508871 0.27389 0 0 0 
-0.078989 0.508871 0.27389 0 0 0 
-0.313364 0.274496 0.414515 0 0 0 
-0.172739 0.227621 0.36764 0 0 0 
-0.078989 0.227621 0.36764 0 0 0 
-0.172739 0.321371 0.36764 0 0 0 
-0.078989 0.321371 0.36764 0 0 0 
-0.172739 0.227621 0.46139 0 0 0 
-0.078989 0.227621 0.46139 0 0 0 
-0.172739 0.321371 0.46139 0 0 0 
-0.078989 0.321371 0.46139 0 0 0 
-0.313364 0.461996 0.414515 0 0 0 
-0.172739 0.415121 0.36764 0 0 0 
-0.078989 0.415121 0.36764 0 0 0 
-0.172739 0.508871 0.36764 0 0 0 
-0.078989 0.508871 0.36764 0 0 0 
-0.172739 0.415121 0.46139 0 0 0 
-0.078989 0.415121 0.46139 0 0 0 
-0.172739 0.508871 0.46139 0 0 0 
-0.078989 0.508871 0.46139 0 0 0 
-0.594614 0.743246 0.320765 0 0 0 
-0.360239 0.602621 0.18014 0 0 0 
-0.266489 0.602621 0.18014 0 0 0 
-0.360239 0.696371 0.18014 0 0 0 
-0.266489 0.696371 0.18014 0 0 0 
-0.360239 0.602621 0.27389 0 0 0 
-0.266489 0.602621 0.27389 0 0 0 
-0.360239 0.696371 0.27389 0 0 0 
-0.266489 0.696371 0.27389 0 0 0 
-0.172739 0.602621 0.18014 0 0 0 
-0.078989 0.602621 0.18014 0 0 0 
-0.172739 0.696371 0.18014 0 0 0 
-0.078989 0.696371 0.18014 0 0 0 
-0.172739 0.602621 0.27389 0 0 0 
-0.078989 0.602621 0.27389 0 0 0 
-0.172739 0.696371 0.27389 0 0 0 
-0.078989 0.696371 0.27389 0 0 0 
-0.360239 0.790121 0.18014 0 0 0 
-0.266489 0.790121 0.18014 0 0 0 
-0.360239 0.883871 0.18014 0 0 0 
-0.266489 0.883871 0.18014 0 0 0 
-0.360239 0.790121 0.27389 0 0 0 
-0.266489 0.790121 0.27389 0 0 0 
-0.360239 0.883871 0.27389 0 0 0 
-0.266489 0.883871 0.27389 0 0 0 
-0.172739 0.790121 0.18014 0 0 0 
-0.078989 0.790121 0.18014 0 0 0 
-0.172739 0.883871 0.18014 0 0 0 
-0.078989 0.883871 0.18014 0 0 0 
-0.172739 0.790121 0.27389 0 0 0 
-0.078989 0.790121 0.27389 0 0 0 
-0.172739 0.883871 0.27389 0 0 0 
-0.078989 0.883871 0.27389 0 0 0 
-0.313364 0.649496 0.414515 0 0 0 
-0.172739 0.602621 0.36764 0 0 0 
-0.078989 0.602621 0.36764 0 0 0 
-0.172739 0.696371 0.36764 0 0 0 
-0.078989 0.696371 0.36764 0 0 0 
-0.172739 0.602621 0.46139 0 0 0 
-0.078989 0.602621 0.46139 0 0 0 
-0.172739 0.696371 0.46139 0 0 0 
-0.078989 0.696371 0.46139 0 0 0 
-0.360239 0.790121 0.36764 0 0 0 
-0.266489 0.790121 0.36764 0 0 0 
-0.360239 0.883871 0.36764 0 0 0 
-0.266489 0.883871 0.36764 0 0 0 
-0.360239 0.790121 0.46139 0 0 0 
-0.266489 0.790121 0.46139 0 0 0 
-0.360239 0.883871 0.46139 0 0 0 
-0.266489 0.883871 0.46139 0 0 0 
-0.172739 0.790121 0.36764 0 0 0 
-0.078989 0.790121 0.36764 0 0 0 
-0.172739 0.883871 0.36764 0 0 0 
-0.078989 0.883871 0.36764 0 0 0 
-0.172739 0.790121 0.46139 0 0 0 
-0.078989 0.790121 0.46139 0 0 0 
-0.172739 0.883871 0.46139 0 0 0 
-0.078989 0.883871 0.46139 0 0 0 
-0.594614 0.368246 0.695765 0 0 0 
-0.219614 0.368246 0.695765 0 0 0 
-0.594614 0.743246 0.695765 0 0 0 
-0.313364 0.649496 0.602015 0 0 0 
-0.125864 0.649496 0.602015 0 0 0 
-0.313364 0.836996 0.602015 0 0 0 
-0.172739 0.790121 0.55514 0 0 0 
-0.078989 0.790121 0.55514 0 0 0 
-0.172739 0.883871 0.55514 0 0 0 
-0.078989 0.883871 0.55514 0 0 0 
-0.172739 0.790121 0.64889 0 0 0 
-0.078989 0.790121 0.64889 0 0 0 
-0.172739 0.883871 0.64889 0 0 0 
-0.078989 0.883871 0.64889 0 0 0 
-0.313364 0.649496 0.789515 0 0 0 
-0.125864 0.649496 0.789515 0 0 0 
-0.313364 0.836996 0.789515 0 0 0 
-0.125864 0.836996 0.789515 0 0 0 
-1.15711 -0.194254 1.25826 0 0 0 
-0.407114 -0.194254 1.25826 0 0 0 
-1.15711 0.555746 1.25826 0 0 0 
-0.407114 0.555746 1.25826 0 0 0 
0.155386 -0.381754 0.320765 0 0 0 
0.530386 -0.381754 0.320765 0 0 0 
0.014761 -0.147379 0.18014 0 0 0 
0.108511 -0.147379 0.18014 0 0 0 
0.014761 -0.0536289 0.18014 0 0 0 
0.108511 -0.0536289 0.18014 0 0 0 
0.014761 -0.147379 0.27389 0 0 0 
0.108511 -0.147379 0.27389 0 0 0 
0.014761 -0.0536289 0.27389 0 0 0 
0.108511 -0.0536289 0.27389 0 0 0 
0.202261 -0.147379 0.18014 0 0 0 
0.296011 -0.147379 0.18014 0 0 0 
0.202261 -0.0536289 0.18014 0 0 0 
0.296011 -0.0536289 0.18014 0 0 0 
0.202261 -0.147379 0.27389 0 0 0 
0.296011 -0.147379 0.27389 0 0 0 
0.202261 -0.0536289 0.27389 0 0 0 
0.296011 -0.0536289 0.27389 0 0 0 
0.014761 0.0401211 0.18014 0 0 0 
0.108511 0.0401211 0.18014 0 0 0 
0.014761 0.133871 0.18014 0 0 0 
0.108511 0.133871 0.18014 0 0 0 
0.014761 0.0401211 0.27389 0 0 0 
0.108511 0.0401211 0.27389 0 0 0 
0.014761 0.133871 0.27389 0 0 0 
0.108511 0.133871 0.27389 0 0 0 
0.202261 0.0401211 0.18014 0 0 0 
0.296011 0.0401211 0.18014 0 0 0 
0.202261 0.133871 0.18014 0 0 0 
0.296011 0.133871 0.18014 0 0 0 
0.202261 0.0401211 0.27389 0 0 0 
0.296011 0.0401211 0.27389 0 0 0 
0.202261 0.133871 0.27389 0 0 0 
0.296011 0.133871 0.27389 0 0 0 
0.014761 -0.147379 0.36764 0 0 0 
0.108511 -0.147379 0.36764 0 0 0 
0.014761 -0.0536289 0.36764 0 0 0 
0.108511 -0.0536289 0.36764 0 0 0 
0.014761 -0.147379 0.46139 0 0 0 
0.108511 -0.147379 0.46139 0 0 0 
0.014761 -0.0536289 0.46139 0 0 0 
0.108511 -0.0536289 0.46139 0 0 0 
0.249136 -0.100504 0.414515 0 0 0 
0.014761 0.0401211 0.36764 0 0 0 
0.108511 0.0401211 0.36764 0 0 0 
0.014761 0.133871 0.36764 0 0 0 
0.108511 0.133871 0.36764 0 0 0 
0.014761 0.0401211 0.46139 0 0 0 
0.108511 0.0401211 0.46139 0 0 0 
0.014761 0.133871 0.46139 0 0 0 
0.108511 0.133871 0.46139 0 0 0 
0.249136 0.0869961 0.414515 0 0 0 
0.530386 -0.00675393 0.320765 0 0 0 
0.155386 -0.381754 0.695765 0 0 0 
0.530386 -0.381754 0.695765 0 0 0 
0.155386 -0.00675393 0.695765 0 0 0 
0.530386 -0.00675393 0.695765 0 0 0 
1.09289 -0.194254 0.508265 0 0 0 
0.014761 0.227621 0.18014 0 0 0 
0.108511 0.227621 0.18014 0 0 0 
0.014761 0.321371 0.18014 0 0 0 
0.108511 0.321371 0.18014 0 0 0 
0.014761 0.227621 0.27389 0 0 0 
0.108511 0.227621 0.27389 0 0 0 
0.014761 0.321371 0.27389 0 0 0 
0.108511 0.321371 0.27389 0 0 0 
0.202261 0.227621 0.18014 0 0 0 
0.296011 0.227621 0.18014 0 0 0 
0.202261 0.321371 0.18014 0 0 0 
0.296011 0.321371 0.18014 0 0 0 
0.202261 0.227621 0.27389 0 0 0 
0.296011 0.227621 0.27389 0 0 0 
0.202261 0.321371 0.27389 0 0 0 
0.296011 0.321371 0.27389 0 0 0 
0.061636 0.461996 0.227015 0 0 0 
0.202261 0.415121 0.18014 0 0 0 
0.296011 0.415121 0.18014 0 0 0 
0.202261 0.508871 0.18014 0 0 0 
0.296011 0.508871 0.18014 0 0 0 
0.202261 0.415121 0.27389 0 0 0 
0.296011 0.415121 0.27389 0 0 0 
0.202261 0.508871 0.27389 0 0 0 
0.296011 0.508871 0.27389 0 0 0 
0.014761 0.227621 0.36764 0 0 0 
0.108511 0.227621 0.36764 0 0 0 
0.014761 0.321371 0.36764 0 0 0 
0.108511 0.321371 0.36764 0 0 0 
0.014761 0.227621 0.46139 0 0 0 
0.108511 0.227621 0.46139 0 0 0 
0.014761 0.321371 0.46139 0 0 0 
0.108511 0.321371 0.46139 0 0 0 
0.202261 0.227621 0.36764 0 0 0 
0.296011 0.227621 0.36764 0 0 0 
0.202261 0.321371 0.36764 0 0 0 
0.296011 0.321371 0.36764 0 0 0 
0.202261 0.227621 0.46139 0 0 0 
0.296011 0.227621 0.46139 0 0 0 
0.202261 0.321371 0.46139 0 0 0 
0.296011 0.321371 0.46139 0 0 0 
0.014761 0.415121 0.36764 0 0 0 
0.108511 0.415121 0.36764 0 0 0 
0.014761 0.508871 0.36764 0 0 0 
0.108511 0.508871 0.36764 0 0 0 
0.014761 0.415121 0.46139 0 0 0 
0.108511 0.415121 0.46139 0 0 0 
0.014761 0.508871 0.46139 0 0 0 
0.108511 0.508871 0.46139 0 0 0 
0.202261 0.415121 0.36764 0 0 0 
0.296011 0.415121 0.36764 0 0 0 
0.202261 0.508871 0.36764 0 0 0 
0.296011 0.508871 0.36764 0 0 0 
0.202261 0.415121 0.46139 0 0 0 
0.296011 0.415121 0.46139 0 0 0 
0.202261 0.508871 0.46139 0 0 0 
0.296011 0.508871 0.46139 0 0 0 
0.530386 0.368246 0.320765 0 0 0 
0.061636 0.649496 0.227015 0 0 0 
0.202261 0.602621 0.18014 0 0 0 
0.296011 0.602621 0.18014 0 0 0 
0.202261 0.696371 0.18014 0 0 0 
0.296011 0.696371 0.18014 0 0 0 
0.202261 0.602621 0.27389 0 0 0 
0.296011 0.602621 0.27389 0 0 0 
0.202261 0.696371 0.27389 0 0 0 
0.296011 0.696371 0.27389 0 0 0 
0.061636 0.836996 0.227015 0 0 0 
0.202261 0.790121 0.18014 0 0 0 
0.296011 0.790121 0.18014 0 0 0 
0.202261 0.883871 0.18014 0 0 0 
0.296011 0.883871 0.18014 0 0 0 
0.202261 0.790121 0.27389 0 0 0 
0.296011 0.790121 0.27389 0 0 0 
0.202261 0.883871 0.27389 0 0 0 
0.296011 0.883871 0.27389 0 0 0 
0.014761 0.602621 0.36764 0 0 0 
0.108511 0.602621 0.36764 0 0 0 
0.014761 0.696371 0.36764 0 0 0 
0.108511 0.696371 0.36764 0 0 0 
0.014761 0.602621 0.46139 0 0 0 
0.108511 0.602621 0.46139 0 0 0 
0.014761 0.696371 0.46139 0 0 0 
0.108511 0.696371 0.46139 0 0 0 
0.202261 0.602621 0.36764 0 0 0 
0.296011 0.602621 0.36764 0 0 0 
0.202261 0.696371 0.36764 0 0 0 
0.296011 0.696371 0.36764 0 0 0 
0.202261 0.602621 0.46139 0 0 0 
0.296011 0.602621 0.46139 0 0 0 
0.202261 0.696371 0.46139 0 0 0 
0.296011 0.696371 0.46139 0 0 0 
0.014761 0.790121 0.36764 0 0 0 
0.108511 0.790121 0.36764 0 0 0 
0.014761 0.883871 0.36764 0 0 0 
0.108511 0.883871 0.36764 0 0 0 
0.014761 0.790121 0.46139 0 0 0 
0.108511 0.790121 0.46139 0 0 0 
0.014761 0.883871 0.46139 0 0 0 
0.108511 0.883871 0.46139 0 0 0 
0.202261 0.790121 0.36764 0 0 0 
0.296011 0.790121 0.36764 0 0 0 
0.202261 0.883871 0.36764 0 0 0 
0.296011 0.883871 0.36764 0 0 0 
0.202261 0.790121 0.46139 0 0 0 
0.296011 0.790121 0.46139 0 0 0 
0.202261 0.883871 0.46139 0 0 0 
0.296011 0.883871 0.46139 0 0 0 
0.436636 0.649496 0.227015 0 0 0 
0.624136 0.649496 0.227015 0 0 0 
0.389761 0.790121 0.18014 0 0 0 
0.483511 0.790121 0.18014 0 0 0 
0.389761 0.883871 0.18014 0 0 0 
0.483511 0.883871 0.18014 0 0 0 
0.389761 0.790121 0.27389 0 0 0 
0.483511 0.790121 0.27389 0 0 0 
0.389761 0.883871 0.27389 0 0 0 
0.483511 0.883871 0.27389 0 0 0 
0.624136 0.836996 0.227015 0 0 0 
0.436636 0.649496 0.414515 0 0 0 
0.624136 0.649496 0.414515 0 0 0 
0.389761 0.790121 0.36764 0 0 0 
0.483511 0.790121 0.36764 0 0 0 
0.389761 0.883871 0.36764 0 0 0 
0.483511 0.883871 0.36764 0 0 0 
0.389761 0.790121 0.46139 0 0 0 
0.483511 0.790121 0.46139 0 0 0 
0.389761 0.883871 0.46139 0 0 0 
0.483511 0.883871 0.46139 0 0 0 
0.624136 0.836996 0.414515 0 0 0 
0.155386 0.368246 0.695765 0 0 0 
0.530386 0.368246 0.695765 0 0 0 
0.061636 0.649496 0.602015 0 0 0 
0.249136 0.649496 0.602015 0 0 0 
0.014761 0.790121 0.55514 0 0 0 
0.108511 0.790121 0.55514 0 0 0 
0.014761 0.883871 0.55514 0 0 0 
0.108511 0.883871 0.55514 0 0 0 
0.014761 0.790121 0.64889 0 0 0 
0.108511 0.790121 0.64889 0 0 0 
0.014761 0.883871 0.64889 0 0 0 
0.108511 0.883871 0.64889 0 0 0 
0.202261 0.790121 0.55514 0 0 0 
0.296011 0.790121 0.55514 0 0 0 
0.202261 0.883871 0.55514 0 0 0 
0.296011 0.883871 0.55514 0 0 0 
0.202261 0.790121 0.64889 0 0 0 
0.296011 0.790121 0.64889 0 0 0 
0.202261 0.883871 0.64889 0 0 0 
0.296011 0.883871 0.64889 0 0 0 
0.061636 0.649496 0.789515 0 0 0 
0.249136 0.649496 0.789515 0 0 0 
0.061636 0.836996 0.789515 0 0 0 
0.249136 0.836996 0.789515 0 0 0 
0.530386 0.743246 0.695765 0 0 0 
1.09289 0.555746 0.508265 0 0 0 
0.342886 -0.194254 1.25826 0 0 0 
1.09289 -0.194254 1.25826 0 0 0 
0.342886 0.555746 1.25826 0 0 0 
1.09289 0.555746 1.25826 0 0 0 
-1.15711 1.30575 0.508265 0 0 0 
-0.688364 1.0245 0.227015 0 0 0 
-0.547739 0.977621 0.18014 0 0 0 
-0.453989 0.977621 0.18014 0 0 0 
-0.547739 1.07137 0.18014 0 0 0 
-0.453989 1.07137 0.18014 0 0 0 
-0.547739 0.977621 0.27389 0 0 0 
-0.453989 0.977621 0.27389 0 0 0 
-0.547739 1.07137 0.27389 0 0 0 
-0.453989 1.07137 0.27389 0 0 0 
-0.688364 1.212 0.227015 0 0 0 
-0.547739 1.16512 0.18014 0 0 0 
-0.453989 1.16512 0.18014 0 0 0 
-0.547739 1.25887 0.18014 0 0 0 
-0.453989 1.25887 0.18014 0 0 0 
-0.547739 1.16512 0.27389 0 0 0 
-0.453989 1.16512 0.27389 0 0 0 
-0.547739 1.25887 0.27389 0 0 0 
-0.453989 1.25887 0.27389 0 0 0 
-0.688364 1.0245 0.414515 0 0 0 
-0.547739 0.977621 0.36764 0 0 0 
-0.453989 0.977621 0.36764 0 0 0 
-0.547739 1.07137 0.36764 0 0 0 
-0.453989 1.07137 0.36764 0 0 0 
-0.547739 0.977621 0.46139 0 0 0 
-0.453989 0.977621 0.46139 0 0 0 
-0.547739 1.07137 0.46139 0 0 0 
-0.453989 1.07137 0.46139 0 0 0 
-0.688364 1.212 0.414515 0 0 0 
-0.547739 1.16512 0.36764 0 0 0 
-0.453989 1.16512 0.36764 0 0 0 
-0.547739 1.25887 0.36764 0 0 0 
-0.453989 1.25887 0.36764 0 0 0 
-0.547739 1.16512 0.46139 0 0 0 
-0.453989 1.16512 0.46139 0 0 0 
-0.547739 1.25887 0.46139 0 0 0 
-0.453989 1.25887 0.46139 0 0 0 
-0.360239 0.977621 0.18014 0 0 0 
-0.266489 0.977621 0.18014 0 0 0 
-0.360239 1.07137 0.18014 0 0 0 
-0.266489 1.07137 0.18014 0 0 0 
-0.360239 0.977621 0.27389 0 0 0 
-0.266489 0.977621 0.27389 0 0 0 
-0.360239 1.07137 0.27389 0 0 0 
-0.266489 1.07137 0.27389 0 0 0 
-0.125864 1.0245 0.227015 0 0 0 
-0.313364 1.212 0.227015 0 0 0 
-0.125864 1.212 0.227015 0 0 0 
-0.360239 0.977621 0.36764 0 0 0 
-0.266489 0.977621 0.36764 0 0 0 
-0.360239 1.07137 0.36764 0 0 0 
-0.266489 1.07137 0.36764 0 0 0 
-0.360239 0.977621 0.46139 0 0 0 
-0.266489 0.977621 0.46139 0 0 0 
-0.360239 1.07137 0.46139 0 0 0 
-0.266489 1.07137 0.46139 0 0 0 
-0.125864 1.0245 0.414515 0 0 0 
-0.360239 1.16512 0.36764 0 0 0 
-0.266489 1.16512 0.36764 0 0 0 
-0.360239 1.25887 0.36764 0 0 0 
-0.266489 1.25887 0.36764 0 0 0 
-0.360239 1.16512 0.46139 0 0 0 
-0.266489 1.16512 0.46139 0 0 0 
-0.360239 1.25887 0.46139 0 0 0 
-0.266489 1.25887 0.46139 0 0 0 
-0.172739 1.16512 0.36764 0 0 0 
-0.078989 1.16512 0.36764 0 0 0 
-0.172739 1.25887 0.36764 0 0 0 
-0.078989 1.25887 0.36764 0 0 0 
-0.172739 1.16512 0.46139 0 0 0 
-0.078989 1.16512 0.46139 0 0 0 
-0.172739 1.25887 0.46139 0 0 0 
-0.078989 1.25887 0.46139 0 0 0 
-0.688364 1.3995 0.227015 0 0 0 
-0.547739 1.35262 0.18014 0 0 0 
-0.453989 1.35262 0.18014 0 0 0 
-0.547739 1.44637 0.18014 0 0 0 
-0.453989 1.44637 0.18014 0 0 0 
-0.547739 1.35262 0.27389 0 0 0 
-0.453989 1.35262 0.27389 0 0 0 
-0.547739 1.44637 0.27389 0 0 0 
-0.453989 1.44637 0.27389 0 0 0 
-0.688364 1.587 0.227015 0 0 0 
-0.547739 1.54012 0.18014 0 0 0 
-0.453989 1.54012 0.18014 0 0 0 
-0.547739 1.63387 0.18014 0 0 0 
-0.453989 1.63387 0.18014 0 0 0 
-0.547739 1.54012 0.27389 0 0 0 
-0.453989 1.54012 0.27389 0 0 0 
-0.547739 1.63387 0.27389 0 0 0 
-0.453989 1.63387 0.27389 0 0 0 
-0.688364 1.3995 0.414515 0 0 0 
-0.547739 1.35262 0.36764 0 0 0 
-0.453989 1.35262 0.36764 0 0 0 
-0.547739 1.44637 0.36764 0 0 0 
-0.453989 1.44637 0.36764 0 0 0 
-0.547739 1.35262 0.46139 0 0 0 
-0.453989 1.35262 0.46139 0 0 0 
-0.547739 1.44637 0.46139 0 0 0 
-0.453989 1.44637 0.46139 0 0 0 
-0.688364 1.587 0.414515 0 0 0 
-0.500864 1.587 0.414515 0 0 0 
-0.360239 1.35262 0.18014 0 0 0 
-0.266489 1.35262 0.18014 0 0 0 
-0.360239 1.44637 0.18014 0 0 0 
-0.266489 1.44637 0.18014 0 0 0 
-0.360239 1.35262 0.27389 0 0 0 
-0.266489 1.35262 0.27389 0 0 0 
-0.360239 1.44637 0.27389 0 0 0 
-0.266489 1.44637 0.27389 0 0 0 
-0.125864 1.3995 0.227015 0 0 0 
-0.360239 1.54012 0.18014 0 0 0 
-0.266489 1.54012 0.18014 0 0 0 
-0.360239 1.63387 0.18014 0 0 0 
-0.266489 1.63387 0.18014 0 0 0 
-0.360239 1.54012 0.27389 0 0 0 
-0.266489 1.54012 0.27389 0 0 0 
-0.360239 1.63387 0.27389 0 0 0 
-0.266489 1.63387 0.27389 0 0 0 
-0.172739 1.54012 0.18014 0 0 0 
-0.078989 1.54012 0.18014 0 0 0 
-0.172739 1.63387 0.18014 0 0 0 
-0.078989 1.63387 0.18014 0 0 0 
-0.172739 1.54012 0.27389 0 0 0 
-0.078989 1.54012 0.27389 0 0 0 
-0.172739 1.63387 0.27389 0 0 0 
-0.078989 1.63387 0.27389 0 0 0 
-0.360239 1.35262 0.36764 0 0 0 
-0.266489 1.35262 0.36764 0 0 0 
-0.360239 1.44637 0.36764 0 0 0 
-0.266489 1.44637 0.36764 0 0 0 
-0.360239 1.35262 0.46139 0 0 0 
-0.266489 1.35262 0.46139 0 0 0 
-0.360239 1.44637 0.46139 0 0 0 
-0.266489 1.44637 0.46139 0 0 0 
-0.125864 1.3995 0.414515 0 0 0 
-0.360239 1.54012 0.36764 0 0 0 
-0.266489 1.54012 0.36764 0 0 0 
-0.360239 1.63387 0.36764 0 0 0 
-0.266489 1.63387 0.36764 0 0 0 
-0.360239 1.54012 0.46139 0 0 0 
-0.266489 1.54012 0.46139 0 0 0 
-0.360239 1.63387 0.46139 0 0 0 
-0.266489 1.63387 0.46139 0 0 0 
-0.172739 1.54012 0.36764 0 0 0 
-0.078989 1.54012 0.36764 0 0 0 
-0.172739 1.63387 0.36764 0 0 0 
-0.078989 1.63387 0.36764 0 0 0 
-0.172739 1.54012 0.46139 0 0 0 
-0.078989 1.54012 0.46139 0 0 0 
-0.172739 1.63387 0.46139 0 0 0 
-0.078989 1.63387 0.46139 0 0 0 
-0.594614 1.11825 0.695765 0 0 0 
-0.360239 0.977621 0.55514 0 0 0 
-0.266489 0.977621 0.55514 0 0 0 
-0.360239 1.07137 0.55514 0 0 0 
-0.266489 1.07137 0.55514 0 0 0 
-0.360239 0.977621 0.64889 0 0 0 
-0.266489 0.977621 0.64889 0 0 0 
-0.360239 1.07137 0.64889 0 0 0 
-0.266489 1.07137 0.64889 0 0 0 
-0.172739 0.977621 0.55514 0 0 0 
-0.078989 0.977621 0.55514 0 0 0 
-0.172739 1.07137 0.55514 0 0 0 
-0.078989 1.07137 0.55514 0 0 0 
-0.172739 0.977621 0.64889 0 0 0 
-0.078989 0.977621 0.64889 0 0 0 
-0.172739 1.07137 0.64889 0 0 0 
-0.078989 1.07137 0.64889 0 0 0 
-0.360239 1.16512 0.55514 0 0 0 
-0.266489 1.16512 0.55514 0 0 0 
-0.360239 1.25887 0.55514 0 0 0 
-0.266489 1.25887 0.55514 0 0 0 
-0.360239 1.16512 0.64889 0 0 0 
-0.266489 1.16512 0.64889 0 0 0 
-0.360239 1.25887 0.64889 0 0 0 
-0.266489 1.25887 0.64889 0 0 0 
-0.172739 1.16512 0.55514 0 0 0 
-0.078989 1.16512 0.55514 0 0 0 
-0.172739 1.25887 0.55514 0 0 0 
-0.078989 1.25887 0.55514 0 0 0 
-0.172739 1.16512 0.64889 0 0 0 
-0.078989 1.16512 0.64889 0 0 0 
-0.172739 1.25887 0.64889 0 0 0 
-0.078989 1.25887 0.64889 0 0 0 
-0.313364 1.0245 0.789515 0 0 0 
-0.172739 0.977621 0.74264 0 0 0 
-0.078989 0.977621 0.74264 0 0 0 
-0.172739 1.07137 0.74264 0 0 0 
-0.078989 1.07137 0.74264 0 0 0 
-0.172739 0.977621 0.83639 0 0 0 
-0.078989 0.977621 0.83639 0 0 0 
-0.172739 1.07137 0.83639 0 0 0 
-0.078989 1.07137 0.83639 0 0 0 
-0.313364 1.212 0.789515 0 0 0 
-0.172739 1.16512 0.74264 0 0 0 
-0.078989 1.16512 0.74264 0 0 0 
-0.172739 1.25887 0.74264 0 0 0 
-0.078989 1.25887 0.74264 0 0 0 
-0.172739 1.16512 0.83639 0 0 0 
-0.078989 1.16512 0.83639 0 0 0 
-0.172739 1.25887 0.83639 0 0 0 
-0.078989 1.25887 0.83639 0 0 0 
-0.594614 1.49325 0.695765 0 0 0 
-0.360239 1.35262 0.55514 0 0 0 
-0.266489 1.35262 0.55514 0 0 0 
-0.360239 1.44637 0.55514 0 0 0 
-0.266489 1.44637 0.55514 0 0 0 
-0.360239 1.35262 0.64889 0 0 0 
-0.266489 1.35262 0.64889 0 0 0 
-0.360239 1.44637 0.64889 0 0 0 
-0.266489 1.44637 0.64889 0 0 0 
-0.172739 1.35262 0.55514 0 0 0 
-0.078989 1.35262 0.55514 0 0 0 
-0.172739 1.44637 0.55514 0 0 0 
-0.078989 1.44637 0.55514 0 0 0 
-0.172739 1.35262 0.64889 0 0 0 
-0.078989 1.35262 0.64889 0 0 0 
-0.172739 1.44637 0.64889 0 0 0 
-0.078989 1.44637 0.64889 0 0 0 
-0.313364 1.587 0.602015 0 0 0 
-0.172739 1.54012 0.55514 0 0 0 
-0.078989 1.54012 0.55514 0 0 0 
-0.172739 1.63387 0.55514 0 0 0 
-0.078989 1.63387 0.55514 0 0 0 
-0.172739 1.54012 0.64889 0 0 0 
-0.078989 1.54012 0.64889 0 0 0 
-0.172739 1.63387 0.64889 0 0 0 
-0.078989 1.63387 0.64889 0 0 0 
-0.313364 1.3995 0.789515 0 0 0 
-0.125864 1.3995 0.789515 0 0 0 
-0.313364 1.587 0.789515 0 0 0 
-0.125864 1.587 0.789515 0 0 0 
-1.15711 2.05575 0.508265 0 0 0 
-0.594614 1.86825 0.320765 0 0 0 
-0.360239 1.72762 0.18014 0 0 0 
-0.266489 1.72762 0.18014 0 0 0 
-0.360239 1.82137 0.18014 0 0 0 
-0.266489 1.82137 0.18014 0 0 0 
-0.360239 1.72762 0.27389 0 0 0 
-0.266489 1.72762 0.27389 0 0 0 
-0.360239 1.82137 0.27389 0 0 0 
-0.266489 1.82137 0.27389 0 0 0 
-0.172739 1.72762 0.18014 0 0 0 
-0.078989 1.72762 0.18014 0 0 0 
-0.172739 1.82137 0.18014 0 0 0 
-0.078989 1.82137 0.18014 0 0 0 
-0.172739 1.72762 0.27389 0 0 0 
-0.078989 1.72762 0.27389 0 0 0 
-0.172739 1.82137 0.27389 0 0 0 
-0.078989 1.82137 0.27389 0 0 0 
-0.313364 1.962 0.227015 0 0 0 
-0.125864 1.962 0.227015 0 0 0 
-0.313364 1.7745 0.414515 0 0 0 
-0.172739 1.72762 0.36764 0 0 0 
-0.078989 1.72762 0.36764 0 0 0 
-0.172739 1.82137 0.36764 0 0 0 
-0.078989 1.82137 0.36764 0 0 0 
-0.172739 1.72762 0.46139 0 0 0 
-0.078989 1.72762 0.46139 0 0 0 
-0.172739 1.82137 0.46139 0 0 0 
-0.078989 1.82137 0.46139 0 0 0 
-0.313364 1.962 0.414515 0 0 0 
-0.125864 1.962 0.414515 0 0 0 
-0.594614 2.24325 0.320765 0 0 0 
-0.219614 2.24325 0.320765 0 0 0 
-0.594614 1.86825 0.695765 0 0 0 
-0.219614 1.86825 0.695765 0 0 0 
-0.594614 2.24325 0.695765 0 0 0 
-0.219614 2.24325 0.695765 0 0 0 
-1.15711 1.30575 1.25826 0 0 0 
-0.407114 1.30575 1.25826 0 0 0 
-1.15711 2.05575 1.25826 0 0 0 
-0.407114 2.05575 1.25826 0 0 0 
0.061636 1.0245 0.227015 0 0 0 
0.249136 1.0245 0.227015 0 0 0 
0.061636 1.212 0.227015 0 0 0 
0.249136 1.212 0.227015 0 0 0 
0.061636 1.0245 0.414515 0 0 0 
0.249136 1.0245 0.414515 0 0 0 
0.061636 1.212 0.414515 0 0 0 
0.202261 1.16512 0.36764 0 0 0 
0.296011 1.16512 0.36764 0 0 0 
0.202261 1.25887 0.36764 0 0 0 
0.296011 1.25887 0.36764 0 0 0 
0.202261 1.16512 0.46139 0 0 0 
0.296011 1.16512 0.46139 0 0 0 
0.202261 1.25887 0.46139 0 0 0 
0.296011 1.25887 0.46139 0 0 0 
0.389761 0.977621 0.18014 0 0 0 
0.483511 0.977621 0.18014 0 0 0 
0.389761 1.07137 0.18014 0 0 0 
0.483511 1.07137 0.18014 0 0 0 
0.389761 0.977621 0.27389 0 0 0 
0.483511 0.977621 0.27389 0 0 0 
0.389761 1.07137 0.27389 0 0 0 
0.483511 1.07137 0.27389 0 0 0 
0.577261 0.977621 0.18014 0 0 0 
0.671011 0.977621 0.18014 0 0 0 
0.577261 1.07137 0.18014 0 0 0 
0.671011 1.07137 0.18014 0 0 0 
0.577261 0.977621 0.27389 0 0 0 
0.671011 0.977621 0.27389 0 0 0 
0.577261 1.07137 0.27389 0 0 0 
0.671011 1.07137 0.27389 0 0 0 
0.389761 1.16512 0.18014 0 0 0 
0.483511 1.16512 0.18014 0 0 0 
0.389761 1.25887 0.18014 0 0 0 
0.483511 1.25887 0.18014 0 0 0 
0.389761 1.16512 0.27389 0 0 0 
0.483511 1.16512 0.27389 0 0 0 
0.389761 1.25887 0.27389 0 0 0 
0.483511 1.25887 0.27389 0 0 0 
0.577261 1.16512 0.18014 0 0 0 
0.671011 1.16512 0.18014 0 0 0 
0.577261 1.25887 0.18014 0 0 0 
0.671011 1.25887 0.18014 0 0 0 
0.577261 1.16512 0.27389 0 0 0 
0.671011 1.16512 0.27389 0 0 0 
0.577261 1.25887 0.27389 0 0 0 
0.671011 1.25887 0.27389 0 0 0 
0.389761 0.977621 0.36764 0 0 0 
0.483511 0.977621 0.36764 0 0 0 
0.389761 1.07137 0.36764 0 0 0 
0.483511 1.07137 0.36764 0 0 0 
0.389761 0.977621 0.46139 0 0 0 
0.483511 0.977621 0.46139 0 0 0 
0.389761 1.07137 0.46139 0 0 0 
0.483511 1.07137 0.46139 0 0 0 
0.624136 1.0245 0.414515 0 0 0 
0.389761 1.16512 0.36764 0 0 0 
0.483511 1.16512 0.36764 0 0 0 
0.389761 1.25887 0.36764 0 0 0 
0.483511 1.25887 0.36764 0 0 0 
0.389761 1.16512 0.46139 0 0 0 
0.483511 1.16512 0.46139 0 0 0 
0.389761 1.25887 0.46139 0 0 0 
0.483511 1.25887 0.46139 0 0 0 
0.624136 1.212 0.414515 0 0 0 
0.061636 1.3995 0.227015 0 0 0 
0.249136 1.3995 0.227015 0 0 0 
0.061636 1.587 0.227015 0 0 0 
0.202261 1.54012 0.18014 0 0 0 
0.296011 1.54012 0.18014 0 0 0 
0.202261 1.63387 0.18014 0 0 0 
0.296011 1.63387 0.18014 0 0 0 
0.202261 1.54012 0.27389 0 0 0 
0.296011 1.54012 0.27389 0 0 0 
0.202261 1.63387 0.27389 0 0 0 
