ply
format ascii 1.0
comment generated by OnePiece
element vertex 920
property double x
property double y
property double z
property double nx
property double ny
property double nz
end_header
0.0233852 0.0155581 -0.320594 1108.6 -1302.93 -1630.89 
-0.0699633 -0.0777904 -0.227246 886.253 -1594.39 -1616.44 
0.0233852 -0.0777904 -0.227246 878.799 -1366.83 -1404.23 
-0.0699633 0.0155581 -0.227246 1116.33 -1669.86 -1836.42 
0.0233852 0.0155581 -0.227246 1114.79 -1440.61 -1629.1 
0.163408 -0.0311162 -0.27392 0 0 0 
-0.0699633 0.108907 -0.320594 1775.97 -781.522 -1857.44 
0.0233852 0.108907 -0.320594 1772.7 -731.885 -1791.78 
-0.0699633 0.202255 -0.320594 2060.45 -538.433 -1827.71 
0.0233852 0.202255 -0.320594 2061.89 -523.831 -1794.01 
-0.0699633 0.108907 -0.227246 1709.89 -762.944 -1731.7 
0.0233852 0.108907 -0.227246 1755.41 -715.015 -1743.61 
-0.0699633 0.202255 -0.227246 1982.95 -506.446 -1687.6 
0.0233852 0.202255 -0.227246 2033.68 -491.303 -1733.64 
0.163408 0.155581 -0.27392 0 0 0 
0.443453 0.0622323 -0.367269 0 0 0 
-0.676729 0.435626 -0.740663 0 0 0 
-0.303335 0.435626 -0.740663 0 0 0 
-0.676729 0.80902 -0.740663 0 0 0 
-0.303335 0.80902 -0.740663 0 0 0 
-0.770077 0.342278 -0.460617 0 0 0 
-0.630054 0.295604 -0.507291 -501.42 -267.079 -532.291 
-0.536706 0.295604 -0.507291 -530.664 -281.295 -657.289 
-0.630054 0.388952 -0.507291 -557.937 -285.91 -618.798 
-0.536706 0.388952 -0.507291 -575.928 -286.51 -742.907 
-0.630054 0.295604 -0.413943 -715.229 -347.371 -647.649 
-0.536706 0.295604 -0.413943 -748.475 -364.428 -777.8 
-0.630054 0.388952 -0.413943 -774.226 -350.158 -715.057 
-0.536706 0.388952 -0.413943 -793.716 -351.664 -841.686 
-0.770077 0.528975 -0.460617 0 0 0 
-0.630054 0.482301 -0.507291 -448.418 -159.9 -661.699 
-0.536706 0.482301 -0.507291 -417.888 -99.3483 -759.215 
-0.630054 0.575649 -0.507291 -395.654 -92.6368 -662.903 
-0.536706 0.575649 -0.507291 -361.904 -30.4727 -744.995 
-0.630054 0.482301 -0.413943 -671.938 -145.125 -630.122 
-0.536706 0.482301 -0.413943 -640.811 -84.3648 -729.231 
-0.630054 0.575649 -0.413943 -648.827 -63.2882 -610.236 
-0.536706 0.575649 -0.413943 -609.311 1.69046 -694.829 
-0.770077 0.342278 -0.27392 0 0 0 
-0.630054 0.295604 -0.320594 -1544.02 -587.045 -857.136 
-0.536706 0.295604 -0.320594 -1571.22 -606.291 -903.693 
-0.630054 0.388952 -0.320594 -1561.24 -473.32 -725.503 
-0.536706 0.388952 -0.320594 -1564.44 -475.053 -747.029 
-0.630054 0.295604 -0.227246 -1614.83 -548.737 -771.534 
-0.536706 0.295604 -0.227246 -1635.32 -564.964 -798.295 
-0.630054 0.388952 -0.227246 -1608.54 -409.647 -621.315 
-0.536706 0.388952 -0.227246 -1606 -410.436 -623.729 
-0.770077 0.528975 -0.27392 0 0 0 
-0.630054 0.482301 -0.320594 -1608.06 88.7148 157.892 
-0.536706 0.482301 -0.320594 -1597.65 96.9542 142.332 
-0.630054 0.575649 -0.320594 -1808.35 197.337 309.425 
-0.536706 0.575649 -0.320594 -1761.53 222.662 292.291 
-0.630054 0.482301 -0.227246 -1642.44 189.333 281.431 
-0.536706 0.482301 -0.227246 -1636.01 189.138 280.072 
-0.630054 0.575649 -0.227246 -1832.4 287.379 433.084 
-0.536706 0.575649 -0.227246 -1791.66 310.83 428.025 
-0.443357 0.295604 -0.507291 -264.943 -131.594 -938.858 
-0.350009 0.295604 -0.507291 -176.812 -78.9723 -1000.18 
-0.443357 0.388952 -0.507291 -190.652 -37.2124 -940.813 
-0.350009 0.388952 -0.507291 -91.6671 40.8399 -972.109 
-0.443357 0.295604 -0.413943 -314.89 -157.807 -981.627 
-0.350009 0.295604 -0.413943 -195.794 -93.5012 -1026.49 
-0.443357 0.388952 -0.413943 -222.186 -46.3516 -958.908 
-0.350009 0.388952 -0.413943 -90.2296 44.9009 -978.576 
-0.25666 0.295604 -0.507291 85.0098 86.3374 -1089.34 
-0.163312 0.295604 -0.507291 186.71 130.957 -1058.05 
-0.25666 0.388952 -0.507291 115.894 259.379 -965.343 
-0.163312 0.388952 -0.507291 196.954 292.431 -922.224 
-0.25666 0.295604 -0.413943 82.6272 84.2024 -1096.24 
-0.163312 0.295604 -0.413943 250.069 133.728 -1093.53 
-0.25666 0.388952 -0.413943 128.404 286.372 -984.302 
-0.163312 0.388952 -0.413943 270.991 326.449 -969.591 
-0.443357 0.482301 -0.507291 156.723 403.705 -767.052 
-0.350009 0.482301 -0.507291 249.994 506.056 -766.485 
-0.443357 0.575649 -0.507291 185.866 423.172 -658.744 
-0.350009 0.575649 -0.507291 269.407 512.128 -642.4 
-0.443357 0.482301 -0.413943 126.626 409.101 -767.571 
-0.350009 0.482301 -0.413943 263.795 535.449 -786.184 
-0.443357 0.575649 -0.413943 182.095 448.408 -660.996 
-0.350009 0.575649 -0.413943 313.327 559.26 -666.624 
-0.25666 0.482301 -0.507291 235.628 618.518 -758.048 
-0.163312 0.482301 -0.507291 212.712 560.437 -671.216 
-0.25666 0.575649 -0.507291 223.861 594.118 -633.503 
-0.163312 0.575649 -0.507291 188.503 529.744 -550.871 
-0.25666 0.482301 -0.413943 320.546 802.181 -863.74 
-0.163312 0.482301 -0.413943 328.389 763.217 -791.77 
-0.25666 0.575649 -0.413943 313.184 781.134 -739.638 
-0.163312 0.575649 -0.413943 295.677 732.322 -666.985 
-0.396683 0.342278 -0.27392 0 0 0 
-0.209986 0.342278 -0.27392 0 0 0 
-0.396683 0.528975 -0.27392 0 0 0 
-0.25666 0.482301 -0.320594 611.867 1331.41 -799.32 
-0.163312 0.482301 -0.320594 827.184 1466.57 -902.687 
-0.25666 0.575649 -0.320594 640.509 1350.13 -786.111 
-0.163312 0.575649 -0.320594 765.22 1461.22 -857.069 
-0.25666 0.482301 -0.227246 576.119 1241.79 -687.417 
-0.163312 0.482301 -0.227246 817.001 1417.16 -823.351 
-0.25666 0.575649 -0.227246 610.005 1289.45 -692.102 
-0.163312 0.575649 -0.227246 761.968 1432.34 -796.848 
-0.770077 0.715672 -0.460617 0 0 0 
-0.630054 0.668998 -0.507291 -182.391 186.826 -617.313 
-0.536706 0.668998 -0.507291 -177.921 196.269 -630.51 
-0.630054 0.762346 -0.507291 -128.476 204.259 -533.513 
-0.536706 0.762346 -0.507291 -128.837 204.832 -535.009 
-0.630054 0.668998 -0.413943 -593.518 224.832 -563.117 
-0.536706 0.668998 -0.413943 -555.813 251.295 -581.222 
-0.630054 0.762346 -0.413943 -522.621 253.572 -494.171 
-0.536706 0.762346 -0.413943 -488.493 270.871 -502.361 
-0.770077 0.902369 -0.460617 0 0 0 
-0.58338 0.902369 -0.460617 0 0 0 
-0.770077 0.715672 -0.27392 0 0 0 
-0.630054 0.668998 -0.320594 -2890.98 282.495 325.734 
-0.536706 0.668998 -0.320594 -2657.54 400.579 296.733 
-0.630054 0.762346 -0.320594 -2768.51 363.073 229.358 
-0.536706 0.762346 -0.320594 -2526.49 478.104 188.14 
-0.630054 0.668998 -0.227246 -2860.86 266.211 422.744 
-0.536706 0.668998 -0.227246 -2636.86 432.052 398.571 
-0.630054 0.762346 -0.227246 -2741.02 333.299 310.511 
-0.536706 0.762346 -0.227246 -2505.93 494.589 276.136 
-0.770077 0.902369 -0.27392 0 0 0 
-0.630054 0.855695 -0.320594 -1123.64 768.763 -381.544 
-0.536706 0.855695 -0.320594 -960.962 775.937 -481.334 
-0.630054 0.949043 -0.320594 -919.68 736.19 -503.409 
-0.536706 0.949043 -0.320594 -788.312 724.199 -611.799 
-0.630054 0.855695 -0.227246 -1121.03 762.411 -365.096 
-0.536706 0.855695 -0.227246 -973.2 762.442 -442.051 
-0.630054 0.949043 -0.227246 -935.105 728.702 -493.307 
-0.536706 0.949043 -0.227246 -819.602 701.67 -580.237 
-0.396683 0.715672 -0.460617 0 0 0 
-0.209986 0.715672 -0.460617 0 0 0 
-0.396683 0.902369 -0.460617 0 0 0 
-0.209986 0.902369 -0.460617 0 0 0 
-0.443357 0.668998 -0.320594 1057.71 874.636 -166.997 
-0.350009 0.668998 -0.320594 1467.15 861.241 -228.545 
-0.443357 0.762346 -0.320594 1205.04 854.629 -259.527 
-0.350009 0.762346 -0.320594 1579.56 790.426 -300.133 
-0.443357 0.668998 -0.227246 1038.08 1205.43 -119.131 
-0.350009 0.668998 -0.227246 1448.96 1210.95 -193.305 
-0.443357 0.762346 -0.227246 1177.36 1175.06 -205.443 
-0.350009 0.762346 -0.227246 1552.68 1130.45 -259.485 
-0.209986 0.715672 -0.27392 0 0 0 
-0.443357 0.855695 -0.320594 1002.53 117.623 -722.288 
-0.350009 0.855695 -0.320594 1116.67 -76.7754 -728.182 
-0.443357 0.949043 -0.320594 826.099 -10.4653 -806.114 
-0.350009 0.949043 -0.320594 894.773 -215.508 -838.323 
-0.443357 0.855695 -0.227246 907.788 71.5302 -576.798 
-0.350009 0.855695 -0.227246 1016.08 -132.872 -594.279 
-0.443357 0.949043 -0.227246 720.936 -114.088 -661.643 
-0.350009 0.949043 -0.227246 784.772 -332.005 -703.121 
-0.25666 0.855695 -0.320594 -108.17 -577.473 -567.285 
-0.163312 0.855695 -0.320594 -300.988 -660.999 -546.626 
-0.25666 0.949043 -0.320594 -278.495 -707.396 -866.645 
-0.163312 0.949043 -0.320594 -450.16 -788.89 -863.291 
-0.25666 0.855695 -0.227246 -176.71 -666.948 -587.173 
-0.163312 0.855695 -0.227246 -361.701 -760.424 -595.057 
-0.25666 0.949043 -0.227246 -351.528 -821.756 -886.924 
-0.163312 0.949043 -0.227246 -513.16 -902.34 -910.649 
0.0700594 0.435626 -0.740663 0 0 0 
0.443453 0.435626 -0.740663 0 0 0 
0.0700594 0.80902 -0.740663 0 0 0 
0.443453 0.80902 -0.740663 0 0 0 
-0.0699633 0.295604 -0.507291 537.48 236.431 -804.714 
0.0233852 0.295604 -0.507291 519.054 221.267 -664.2 
-0.0699633 0.388952 -0.507291 479.839 280.681 -699.957 
0.0233852 0.388952 -0.507291 458.603 242.582 -576.996 
-0.0699633 0.295604 -0.413943 979.371 256.476 -1034.79 
0.0233852 0.295604 -0.413943 962.218 241.188 -893.781 
-0.0699633 0.388952 -0.413943 912.893 336.097 -913.491 
0.0233852 0.388952 -0.413943 890.015 293.475 -786.96 
0.163408 0.342278 -0.460617 0 0 0 
-0.0232891 0.528975 -0.460617 0 0 0 
0.163408 0.528975 -0.460617 0 0 0 
-0.0699633 0.295604 -0.320594 3137.92 161.691 -1681.85 
0.0233852 0.295604 -0.320594 3150.42 160.779 -1668.36 
-0.0699633 0.388952 -0.320594 3062.66 407.648 -1545.32 
0.0233852 0.388952 -0.320594 3059.36 377.186 -1518.45 
-0.0699633 0.295604 -0.227246 3058.08 128.702 -1561.66 
0.0233852 0.295604 -0.227246 3101.14 134.879 -1597.63 
-0.0699633 0.388952 -0.227246 3016.71 401.223 -1463.36 
0.0233852 0.388952 -0.227246 3041.94 380.64 -1480.95 
0.163408 0.342278 -0.27392 0 0 0 
-0.0699633 0.482301 -0.320594 1601.4 1174.35 -902.833 
0.0233852 0.482301 -0.320594 1512.73 981.106 -788.767 
-0.0699633 0.575649 -0.320594 1182.3 1136.77 -693.417 
0.0233852 0.575649 -0.320594 1092.18 943.234 -580.928 
-0.0699633 0.482301 -0.227246 1751.82 1392.78 -1027.35 
0.0233852 0.482301 -0.227246 1679.35 1215.06 -944.701 
-0.0699633 0.575649 -0.227246 1338.97 1350.24 -839.881 
0.0233852 0.575649 -0.227246 1261.12 1164.45 -755.178 
0.163408 0.528975 -0.27392 0 0 0 
0.443453 0.435626 -0.367269 0 0 0 
-0.0232891 0.715672 -0.460617 0 0 0 
0.163408 0.715672 -0.460617 0 0 0 
-0.0232891 0.902369 -0.460617 0 0 0 
0.163408 0.902369 -0.460617 0 0 0 
-0.0232891 0.715672 -0.27392 0 0 0 
0.163408 0.715672 -0.27392 0 0 0 
-0.0699633 0.855695 -0.320594 -235.65 -663.542 -583.793 
0.0233852 0.855695 -0.320594 -135.14 -803.574 -752.799 
-0.0699633 0.949043 -0.320594 -311.035 -789.63 -819.571 
0.0233852 0.949043 -0.320594 -182.632 -925.09 -976.07 
-0.0699633 0.855695 -0.227246 -283.019 -792.311 -651.994 
0.0233852 0.855695 -0.227246 -164.352 -949.879 -831.887 
-0.0699633 0.949043 -0.227246 -353.616 -904.753 -878.432 
0.0233852 0.949043 -0.227246 -207.969 -1051.85 -1043.1 
0.116734 0.855695 -0.320594 394.939 -1663.54 -1749.14 
0.210082 0.855695 -0.320594 423.948 -1576.4 -1669.86 
0.116734 0.949043 -0.320594 437.753 -1765.73 -1989.11 
0.210082 0.949043 -0.320594 492.926 -1674.21 -1903.8 
0.116734 0.855695 -0.227246 455.875 -1902.51 -1886.2 
0.210082 0.855695 -0.227246 511.465 -1819.75 -1814.02 
0.116734 0.949043 -0.227246 491.85 -1973.23 -2101.62 
0.210082 0.949043 -0.227246 575.088 -1891.15 -2027.8 
0.443453 0.80902 -0.367269 0 0 0 
-0.676729 -0.311162 0.00612531 0 0 0 
-0.303335 -0.311162 0.00612531 0 0 0 
-0.770077 -0.0311162 -0.0872232 0 0 0 
-0.58338 -0.0311162 -0.0872232 0 0 0 
-0.770077 0.155581 -0.0872232 0 0 0 
-0.630054 0.108907 -0.133897 -1655.86 -684.292 -229.964 
-0.536706 0.108907 -0.133897 -1701.02 -728.624 -257.578 
-0.630054 0.202255 -0.133897 -1796.96 -682.012 -234.782 
-0.536706 0.202255 -0.133897 -1817.93 -698.072 -258.515 
-0.630054 0.108907 -0.0405489 -1755.03 -707.088 -8.13317 
-0.536706 0.108907 -0.0405489 -1785.12 -739.586 -8.03362 
-0.630054 0.202255 -0.0405489 -1893.74 -687.116 20.0032 
-0.536706 0.202255 -0.0405489 -1896.46 -689.137 20.3947 
-0.770077 -0.0311162 0.0994738 0 0 0 
-0.58338 -0.0311162 0.0994738 0 0 0 
-0.770077 0.155581 0.0994738 0 0 0 
-0.630054 0.108907 0.0527996 -2201.1 -874.952 890.303 
-0.536706 0.108907 0.0527996 -2248.32 -916.867 904.898 
-0.630054 0.202255 0.0527996 -2384.75 -815.622 1022.93 
-0.536706 0.202255 0.0527996 -2393.83 -819.911 1027.97 
-0.630054 0.108907 0.146148 -2068.67 -799.056 993.425 
-0.536706 0.108907 0.146148 -2131.47 -838.949 1040.56 
-0.630054 0.202255 0.146148 -2236.45 -741.365 1125.58 
-0.536706 0.202255 0.146148 -2262.01 -744.756 1161.19 
-0.443357 -0.0777904 -0.133897 -1057.34 -1334.77 -178.843 
-0.350009 -0.0777904 -0.133897 -1045.34 -1477.27 -206.106 
-0.443357 0.0155581 -0.133897 -1111.53 -1362.89 -207.047 
-0.350009 0.0155581 -0.133897 -1064.81 -1490.33 -229.451 
-0.443357 -0.0777904 -0.0405489 -1167.71 -1418.93 -5.27854 
-0.350009 -0.0777904 -0.0405489 -1153.74 -1542.82 -1.08613 
-0.443357 0.0155581 -0.0405489 -1206.45 -1433.74 -5.23794 
-0.350009 0.0155581 -0.0405489 -1155.27 -1541.66 -0.938057 
-0.25666 -0.0777904 -0.133897 -111.934 -1229.12 -220.057 
-0.163312 -0.0777904 -0.133897 52.1854 -1175.62 -212.288 
-0.25666 0.0155581 -0.133897 -114.734 -1226.85 -224.049 
-0.163312 0.0155581 -0.133897 56.8728 -1173.2 -217.45 
-0.25666 -0.0777904 -0.0405489 -129.324 -1124.7 28.1317 
-0.163312 -0.0777904 -0.0405489 30.5588 -1051 38.7101 
-0.25666 0.0155581 -0.0405489 -129.698 -1119.37 27.9886 
-0.163312 0.0155581 -0.0405489 30.437 -1046.08 38.5175 
-0.396683 0.155581 -0.0872232 0 0 0 
-0.209986 0.155581 -0.0872232 0 0 0 
-0.443357 -0.0777904 0.0527996 -1727.96 -1749.18 445.77 
-0.350009 -0.0777904 0.0527996 -1700.32 -1870.35 444.087 
-0.443357 0.0155581 0.0527996 -1779.57 -1770.06 466.039 
-0.350009 0.0155581 0.0527996 -1704.55 -1871.14 445.424 
-0.443357 -0.0777904 0.146148 -1763.51 -1676.76 656.473 
-0.350009 -0.0777904 0.146148 -1746.47 -1802.33 681.011 
-0.443357 0.0155581 0.146148 -1828.03 -1696.26 706.629 
-0.350009 0.0155581 0.146148 -1769.72 -1801.44 717.635 
-0.25666 -0.0777904 0.0527996 -133.257 -1159.86 71.0312 
-0.163312 -0.0777904 0.0527996 98.4266 -1038.54 5.51838 
-0.25666 0.0155581 0.0527996 -134.328 -1155.51 71.1633 
-0.163312 0.0155581 0.0527996 98.0798 -1034.47 5.49448 
-0.25666 -0.0777904 0.146148 -194.31 -1164.61 278.092 
-0.163312 -0.0777904 0.146148 53.552 -1061.5 186.44 
-0.25666 0.0155581 0.146148 -224.176 -1149.22 336.945 
-0.163312 0.0155581 0.146148 26.9334 -1046.77 244.831 
-0.396683 0.155581 0.0994738 0 0 0 
-0.209986 0.155581 0.0994738 0 0 0 
-0.676729 -0.311162 0.379519 0 0 0 
-0.303335 -0.311162 0.379519 0 0 0 
-0.770077 -0.0311162 0.286171 0 0 0 
-0.58338 -0.0311162 0.286171 0 0 0 
-0.770077 0.155581 0.286171 0 0 0 
-0.630054 0.108907 0.239497 -822.328 -172.472 697.168 
-0.536706 0.108907 0.239497 -959.329 -191.156 917.69 
-0.630054 0.202255 0.239497 -850.533 -164.696 720.522 
-0.536706 0.202255 0.239497 -961.989 -158.463 927.29 
-0.630054 0.108907 0.332845 -534.338 -59.1426 563.149 
-0.536706 0.108907 0.332845 -663.937 -72.2658 780.057 
-0.630054 0.202255 0.332845 -537.838 -59.53 566.838 
-0.536706 0.202255 0.332845 -646.173 -52.5682 770.488 
-0.770077 -0.0311162 0.472868 0 0 0 
-0.58338 -0.0311162 0.472868 0 0 0 
-0.770077 0.155581 0.472868 0 0 0 
-0.58338 0.155581 0.472868 0 0 0 
-0.443357 -0.0777904 0.239497 -1442.6 -944.359 1471.19 
-0.350009 -0.0777904 0.239497 -1497.55 -1095.92 1659.83 
-0.443357 0.0155581 0.239497 -1565.6 -945.251 1676.13 
-0.350009 0.0155581 0.239497 -1630.52 -1080.14 1906.19 
-0.443357 -0.0777904 0.332845 -1216.14 -716.407 1410.21 
-0.350009 -0.0777904 0.332845 -1275.84 -851.716 1602.31 
-0.443357 0.0155581 0.332845 -1332.42 -714.424 1612.35 
-0.350009 0.0155581 0.332845 -1409.82 -835.742 1851.1 
-0.25666 -0.0777904 0.239497 -557.655 -1178.73 1479.89 
-0.163312 -0.0777904 0.239497 -282.57 -1228.13 1306.87 
-0.25666 0.0155581 0.239497 -760.313 -1091.25 1891.3 
-0.163312 0.0155581 0.239497 -467.008 -1145.31 1716.12 
-0.25666 -0.0777904 0.332845 -543.898 -1027.65 1480.54 
-0.163312 -0.0777904 0.332845 -299.371 -1105.85 1323.73 
-0.25666 0.0155581 0.332845 -747.679 -941.56 1895.21 
-0.163312 0.0155581 0.332845 -485.265 -1023.02 1737.48 
-0.443357 0.108907 0.239497 -1044.26 -147.529 1614.57 
-0.350009 0.108907 0.239497 -1118.81 -65.1942 1918.96 
-0.443357 0.202255 0.239497 -862.2 27.7009 1512.68 
-0.350009 0.202255 0.239497 -955.664 132.675 1823.28 
-0.443357 0.108907 0.332845 -966.644 -98.4962 1581.08 
-0.350009 0.108907 0.332845 -1084.45 -30.0358 1906.86 
-0.443357 0.202255 0.332845 -814.043 42.5534 1484.2 
-0.350009 0.202255 0.332845 -953.254 132.511 1817.95 
-0.25666 0.108907 0.239497 -1485.82 386.083 3050.42 
-0.163312 0.108907 0.239497 -1323.49 354.765 3018.46 
-0.25666 0.202255 0.239497 -1623.51 575.963 3110.48 
-0.163312 0.202255 0.239497 -1499.12 546.053 3088.63 
-0.25666 0.108907 0.332845 -1486.76 408.925 3055.41 
-0.163312 0.108907 0.332845 -1333.71 379.762 3042.28 
-0.25666 0.202255 0.332845 -1626.95 576.84 3114.32 
-0.163312 0.202255 0.332845 -1510.02 553.069 3112.48 
-0.396683 -0.0311162 0.472868 0 0 0 
-0.209986 -0.0311162 0.472868 0 0 0 
-0.396683 0.155581 0.472868 0 0 0 
-0.209986 0.155581 0.472868 0 0 0 
0.0700594 -0.311162 0.00612531 0 0 0 
0.443453 -0.311162 0.00612531 0 0 0 
-0.0699633 -0.0777904 -0.133897 105.515 -1127.5 -155.426 
0.0233852 -0.0777904 -0.133897 161.875 -1136.91 -202.685 
-0.0699633 0.0155581 -0.133897 138.464 -1134.02 -187.152 
0.0233852 0.0155581 -0.133897 238.007 -1132.72 -276.556 
-0.0699633 -0.0777904 -0.0405489 -31.5657 -1051.67 73.7039 
0.0233852 -0.0777904 -0.0405489 42.9197 -1108.74 11.6589 
-0.0699633 0.0155581 -0.0405489 -31.3926 -1046.07 73.2936 
0.0233852 0.0155581 -0.0405489 92.2126 -1093.4 -29.4353 
0.116734 -0.0777904 -0.133897 443.607 -1290.02 -540.168 
0.210082 -0.0777904 -0.133897 430.441 -1148.03 -523.118 
0.116734 0.0155581 -0.133897 750.816 -1204.54 -841.354 
0.210082 0.0155581 -0.133897 732.408 -1062.26 -819.144 
0.116734 -0.0777904 -0.0405489 550.005 -1509.32 -391.369 
0.210082 -0.0777904 -0.0405489 557.525 -1376.3 -402.773 
0.116734 0.0155581 -0.0405489 894.216 -1423.58 -677.262 
0.210082 0.0155581 -0.0405489 901.622 -1291.7 -688.248 
-0.0232891 0.155581 -0.0872232 0 0 0 
0.116734 0.108907 -0.133897 2219.29 386.699 -2191.42 
0.210082 0.108907 -0.133897 2180.58 417.781 -2152.89 
0.116734 0.202255 -0.133897 2317.12 587.619 -2283.58 
0.210082 0.202255 -0.133897 2271.13 598.203 -2243.23 
0.116734 0.108907 -0.0405489 2494.68 350.499 -2064.66 
0.210082 0.108907 -0.0405489 2495.5 370.746 -2063.25 
0.116734 0.202255 -0.0405489 2570.67 582.074 -2176.99 
0.210082 0.202255 -0.0405489 2571.13 582.482 -2174.05 
-0.0699633 -0.0777904 0.0527996 -72.2411 -1048.25 -14.7844 
0.0233852 -0.0777904 0.0527996 46.3644 -1160.23 95.531 
-0.0699633 0.0155581 0.0527996 -71.9023 -1043.58 -14.7328 
0.0233852 0.0155581 0.0527996 94.3574 -1157.38 100.241 
-0.0699633 -0.0777904 0.146148 -7.11231 -1106.17 41.6692 
0.0233852 -0.0777904 0.146148 117.787 -1206.46 142.699 
-0.0699633 0.0155581 0.146148 -7.00098 -1103.5 74.7459 
0.0233852 0.0155581 0.146148 168.711 -1211.38 182.151 
0.116734 -0.0777904 0.0527996 923.918 -1877.85 777.259 
0.210082 -0.0777904 0.0527996 940.352 -1744.02 781.79 
0.116734 0.0155581 0.0527996 1258.49 -1875.66 810.031 
0.210082 0.0155581 0.0527996 1276.22 -1743.25 814.709 
0.116734 -0.0777904 0.146148 921.284 -1808.33 890.56 
0.210082 -0.0777904 0.146148 925.981 -1665.68 890.251 
0.116734 0.0155581 0.146148 1250.77 -1839.1 993.886 
0.210082 0.0155581 0.146148 1256.4 -1697.38 990.255 
-0.0232891 0.155581 0.0994738 0 0 0 
0.116734 0.108907 0.0527996 2474.46 -295.581 337.92 
0.210082 0.108907 0.0527996 2488.79 -275.698 340.975 
0.116734 0.202255 0.0527996 2362.33 -27.8479 197.218 
0.210082 0.202255 0.0527996 2387.99 -30.1919 191.204 
0.116734 0.108907 0.146148 2435.62 -508.342 846.709 
0.210082 0.108907 0.146148 2443.71 -484.75 823.378 
0.116734 0.202255 0.146148 2309.51 -262.996 721.363 
0.210082 0.202255 0.146148 2333.06 -263.233 690.005 
0.443453 0.0622323 0.00612531 0 0 0 
0.0700594 -0.311162 0.379519 0 0 0 
0.443453 -0.311162 0.379519 0 0 0 
-0.0699633 -0.0777904 0.239497 422.63 -1484.1 468.908 
0.0233852 -0.0777904 0.239497 538.853 -1449.83 338.064 
-0.0699633 0.0155581 0.239497 421.828 -1486.19 700.16 
0.0233852 0.0155581 0.239497 608.048 -1485.75 539.471 
-0.0699633 -0.0777904 0.332845 427.598 -1427.91 532.849 
0.0233852 -0.0777904 0.332845 529.316 -1381.42 383.347 
-0.0699633 0.0155581 0.332845 423.428 -1426.23 778.738 
0.0233852 0.0155581 0.332845 590.297 -1412.77 599.411 
0.116734 -0.0777904 0.239497 507.919 -1035.31 373.977 
0.210082 -0.0777904 0.239497 436.731 -838.178 330.36 
0.116734 0.0155581 0.239497 810.072 -1172.09 574.578 
0.210082 0.0155581 0.239497 735.167 -973.414 505.507 
0.116734 -0.0777904 0.332845 381.052 -799.38 258.54 
0.210082 -0.0777904 0.332845 309.023 -609.457 206.184 
0.116734 0.0155581 0.332845 645.956 -942.569 462.624 
0.210082 0.0155581 0.332845 570.212 -751.27 382.528 
-0.0699633 0.108907 0.239497 54.2503 -279.111 1679.97 
0.0233852 0.108907 0.239497 561.933 -489.216 1458.6 
-0.0699633 0.202255 0.239497 -42.3504 -67.777 1650.93 
0.0233852 0.202255 0.239497 488.577 -295.277 1418.52 
-0.0699633 0.108907 0.332845 32.6882 -226.992 1792.76 
0.0233852 0.108907 0.332845 504.057 -441.184 1569.22 
-0.0699633 0.202255 0.332845 -76.4589 -24.0642 1767.26 
0.0233852 0.202255 0.332845 422.035 -258.815 1537.6 
0.116734 0.108907 0.239497 2194.63 -1128.29 1461.63 
0.210082 0.108907 0.239497 2156.15 -1079.19 1275.47 
0.116734 0.202255 0.239497 2187.53 -1056.42 1466.72 
0.210082 0.202255 0.239497 2180.48 -1041.29 1289.09 
0.116734 0.108907 0.332845 1914.12 -1129.96 1469.07 
0.210082 0.108907 0.332845 1876.6 -1087.55 1266.37 
0.116734 0.202255 0.332845 1937.24 -1102.12 1520.72 
0.210082 0.202255 0.332845 1929.53 -1091.49 1326.51 
-0.0699633 -0.0777904 0.426194 1.19659 -743.479 460.359 
0.0233852 -0.0777904 0.426194 16.2609 -732.468 435.792 
-0.0699633 0.0155581 0.426194 -21.4188 -697.165 585.895 
0.0233852 0.0155581 0.426194 8.25965 -700.112 568.871 
-0.0699633 -0.0777904 0.519542 -60.5876 -544.905 387.875 
0.0233852 -0.0777904 0.519542 -60.2556 -541.92 385.75 
-0.0699633 0.0155581 0.519542 -82.8863 -498.969 479.57 
0.0233852 0.0155581 0.519542 -77.209 -504.876 489.42 
0.163408 -0.0311162 0.472868 0 0 0 
-0.0699633 0.108907 0.426194 -158.841 202.326 950.055 
0.0233852 0.108907 0.426194 -53.8679 111.31 998.038 
-0.0699633 0.202255 0.426194 -233.513 308.151 969.813 
0.0233852 0.202255 0.426194 -112.845 204.528 1044.27 
-0.0699633 0.108907 0.519542 -165.21 237.08 700.748 
0.0233852 0.108907 0.519542 -127.581 176.558 783.618 
-0.0699633 0.202255 0.519542 -225.562 315.804 726.646 
0.0233852 0.202255 0.519542 -175.832 245.251 836.103 
0.116734 0.108907 0.426194 503.421 -536.234 906.473 
0.210082 0.108907 0.426194 519.404 -560.486 775.155 
0.116734 0.202255 0.426194 581.451 -590.863 1097.59 
0.210082 0.202255 0.426194 609.845 -629.578 961.926 
0.116734 0.108907 0.519542 233.221 -379.959 706.065 
0.210082 0.108907 0.519542 255.162 -411.17 603.072 
0.116734 0.202255 0.519542 308.401 -438.488 891.617 
0.210082 0.202255 0.519542 338.929 -480.333 783.587 
0.443453 0.0622323 0.379519 0 0 0 
-0.770077 0.342278 -0.0872232 0 0 0 
-0.630054 0.295604 -0.133897 -1206.06 -84.1505 -64.9275 
-0.536706 0.295604 -0.133897 -1206.39 -86.8755 -68.9589 
-0.630054 0.388952 -0.133897 -1083.86 92.4216 0.665671 
-0.536706 0.388952 -0.133897 -1079.67 92.2185 0.10846 
-0.630054 0.295604 -0.0405489 -1203.15 33.9697 195.818 
-0.536706 0.295604 -0.0405489 -1201.04 33.6095 196.133 
-0.630054 0.388952 -0.0405489 -1050.61 220.521 230.062 
-0.536706 0.388952 -0.0405489 -1047.85 223.968 233.453 
-0.770077 0.528975 -0.0872232 0 0 0 
-0.630054 0.482301 -0.133897 -888.703 549.966 219.532 
-0.536706 0.482301 -0.133897 -889.474 552.068 220.012 
-0.630054 0.575649 -0.133897 -806.649 554.719 232.534 
-0.536706 0.575649 -0.133897 -805.406 608.357 235.593 
-0.630054 0.482301 -0.0405489 -766.739 611.728 251.054 
-0.536706 0.482301 -0.0405489 -775.241 637.716 273.518 
-0.630054 0.575649 -0.0405489 -631.226 594.153 223.292 
-0.536706 0.575649 -0.0405489 -642.653 669.274 248.877 
-0.770077 0.342278 0.0994738 0 0 0 
-0.630054 0.295604 0.0527996 -1587.19 278.734 1054.66 
-0.536706 0.295604 0.0527996 -1591.41 279.421 1059.02 
-0.630054 0.388952 0.0527996 -1366.9 486.142 984.674 
-0.536706 0.388952 0.0527996 -1377.25 511.436 1010.74 
-0.630054 0.295604 0.146148 -1458.1 279.276 1063.63 
-0.536706 0.295604 0.146148 -1469.35 285.918 1088.01 
-0.630054 0.388952 0.146148 -1243.73 464.723 975.172 
-0.536706 0.388952 0.146148 -1259.35 496.103 1018.02 
-0.770077 0.528975 0.0994738 0 0 0 
-0.630054 0.482301 0.0527996 -786.399 620.342 501.816 
-0.536706 0.482301 0.0527996 -834.005 786.993 654.308 
-0.630054 0.575649 0.0527996 -602.992 562.11 368.301 
-0.536706 0.575649 0.0527996 -650.135 735.659 520.522 
-0.630054 0.482301 0.146148 -688.553 541.694 474.445 
-0.536706 0.482301 0.146148 -735.423 708.135 629.095 
-0.630054 0.575649 0.146148 -520.932 484.783 341.727 
-0.536706 0.575649 0.146148 -566.383 650.254 493.211 
-0.396683 0.342278 -0.0872232 0 0 0 
-0.209986 0.342278 -0.0872232 0 0 0 
-0.396683 0.528975 -0.0872232 0 0 0 
-0.209986 0.528975 -0.0872232 0 0 0 
-0.396683 0.342278 0.0994738 0 0 0 
-0.209986 0.342278 0.0994738 0 0 0 
-0.443357 0.482301 0.0527996 -407.818 1221.96 1113.38 
-0.350009 0.482301 0.0527996 -297.753 1237.99 1085.82 
-0.443357 0.575649 0.0527996 -383.895 1265.19 1098.21 
-0.350009 0.575649 0.0527996 -308.396 1279.29 1088.09 
-0.443357 0.482301 0.146148 -397.973 1219.39 1129.44 
-0.350009 0.482301 0.146148 -337.943 1272.93 1135.54 
-0.443357 0.575649 0.146148 -370.851 1207.47 1095.21 
-0.350009 0.575649 0.146148 -341.467 1251.54 1113.53 
-0.25666 0.482301 0.0527996 -63.2483 894.612 454.075 
-0.163312 0.482301 0.0527996 -36.4404 855.24 256.779 
-0.25666 0.575649 0.0527996 -121.963 830.485 444.154 
-0.163312 0.575649 0.0527996 -106.473 771.833 237.86 
-0.25666 0.482301 0.146148 -313.48 1072.96 657.804 
-0.163312 0.482301 0.146148 -310.195 999.81 479.469 
-0.25666 0.575649 0.146148 -359.897 952.446 611.789 
-0.163312 0.575649 0.146148 -370.046 869.714 429.034 
-0.676729 0.80902 0.00612531 0 0 0 
-0.443357 0.668998 -0.133897 59.4935 2508.74 126.713 
-0.350009 0.668998 -0.133897 152.272 2620.9 114.352 
-0.443357 0.762346 -0.133897 3.39694 2385.81 240.217 
-0.350009 0.762346 -0.133897 71.9195 2482.89 228.536 
-0.443357 0.668998 -0.0405489 -99.0913 2405.55 169.401 
-0.350009 0.668998 -0.0405489 -71.723 2502.24 165.448 
-0.443357 0.762346 -0.0405489 -179.933 2249.48 273.329 
-0.350009 0.762346 -0.0405489 -175.296 2337.92 267.113 
-0.25666 0.668998 -0.133897 183.771 1172.44 17.4243 
-0.163312 0.668998 -0.133897 160.093 748.684 -72.0209 
-0.25666 0.762346 -0.133897 98.6999 1015.5 2.72042 
-0.163312 0.762346 -0.133897 53.5352 557.998 -89.6489 
-0.25666 0.668998 -0.0405489 79.6592 1051.72 31.0286 
-0.163312 0.668998 -0.0405489 71.5385 632.197 -71.0309 
-0.25666 0.762346 -0.0405489 -1.72084 899.299 1.68297 
-0.163312 0.762346 -0.0405489 -23.3116 452.162 -101.644 
-0.443357 0.855695 -0.133897 -499.061 -279.505 853.314 
-0.350009 0.855695 -0.133897 -531.504 -384.873 810.436 
-0.443357 0.949043 -0.133897 -608.862 -708.602 867.094 
-0.350009 0.949043 -0.133897 -636.418 -826.611 813.259 
-0.443357 0.855695 -0.0405489 -720.082 -373.555 940.526 
-0.350009 0.855695 -0.0405489 -781.935 -467.099 897.9 
-0.443357 0.949043 -0.0405489 -830.117 -804.884 966.954 
-0.350009 0.949043 -0.0405489 -879.423 -906.788 917.374 
-0.25666 0.855695 -0.133897 -477.233 -671.422 -194.427 
-0.163312 0.855695 -0.133897 -450.041 -750.932 -384.387 
-0.25666 0.949043 -0.133897 -531.993 -857.268 -235.92 
-0.163312 0.949043 -0.133897 -487.114 -863.33 -423.316 
-0.25666 0.855695 -0.0405489 -553.002 -705.315 -133.344 
-0.163312 0.855695 -0.0405489 -487.504 -761.729 -324.821 
-0.25666 0.949043 -0.0405489 -577.343 -860.345 -129.636 
-0.163312 0.949043 -0.0405489 -492.327 -839.9 -315.437 
-0.396683 0.715672 0.0994738 0 0 0 
-0.25666 0.668998 0.0527996 -418.632 -376.858 -26.9824 
-0.163312 0.668998 0.0527996 -492.214 -509.923 -109.876 
-0.25666 0.762346 0.0527996 -505.577 -630.931 -113.194 
-0.163312 0.762346 0.0527996 -570.213 -746.845 -170.318 
-0.25666 0.668998 0.146148 -582.399 -709.376 20.6256 
-0.163312 0.668998 0.146148 -670.086 -791.233 -46.7905 
-0.25666 0.762346 0.146148 -643.116 -987.673 -84.2702 
-0.163312 0.762346 0.146148 -716.256 -1046.42 -126.288 
-0.443357 0.855695 0.0527996 -666.399 -598.606 74.9231 
-0.350009 0.855695 0.0527996 -756.882 -718.316 50.5764 
-0.443357 0.949043 0.0527996 -859.193 -805.861 86.6313 
-0.350009 0.949043 0.0527996 -938.735 -912.784 63.2002 
-0.443357 0.855695 0.146148 -758.105 -678.78 -13.8574 
-0.350009 0.855695 0.146148 -854.679 -803.784 -30.4426 
-0.443357 0.949043 0.146148 -965.986 -837.786 6.8797 
-0.350009 0.949043 0.146148 -1050.82 -944.306 -8.25521 
-0.25666 0.855695 0.0527996 -704.729 -897.547 -152.735 
-0.163312 0.855695 0.0527996 -620.611 -830.893 -176.824 
-0.25666 0.949043 0.0527996 -668.331 -840.523 -136.303 
-0.163312 0.949043 0.0527996 -547.068 -734.818 -154.779 
-0.25666 0.855695 0.146148 -753.019 -943.973 -117.65 
-0.163312 0.855695 0.146148 -652.797 -851.867 -121.094 
-0.25666 0.949043 0.146148 -700.28 -836.782 -104.155 
-0.163312 0.949043 0.146148 -558.722 -712.863 -104.638 
-0.676729 0.435626 0.379519 0 0 0 
-0.443357 0.295604 0.239497 -309.636 278.051 943.77 
-0.350009 0.295604 0.239497 -507.886 303.811 1216.25 
-0.443357 0.388952 0.239497 -199.566 306.748 771.357 
-0.350009 0.388952 0.239497 -418.343 343.788 1028.23 
-0.443357 0.295604 0.332845 -278.359 270.533 916.523 
-0.350009 0.295604 0.332845 -507.124 301.981 1211.41 
-0.443357 0.388952 0.332845 -166.459 271.515 723.255 
-0.350009 0.388952 0.332845 -411.211 315.786 999.704 
-0.25666 0.295604 0.239497 -1714.64 251.903 2276 
-0.163312 0.295604 0.239497 -1677.95 208.525 2174.36 
-0.25666 0.388952 0.239497 -1737.19 370.166 2051.21 
-0.163312 0.388952 0.239497 -1717.74 328.775 1944.74 
-0.25666 0.295604 0.332845 -1719.83 250.915 2279.5 
-0.163312 0.295604 0.332845 -1697.59 208.896 2196.94 
-0.25666 0.388952 0.332845 -1739.43 349.764 2042.58 
-0.163312 0.388952 0.332845 -1736.21 311.913 1961.24 
-0.396683 0.528975 0.286171 0 0 0 
-0.25666 0.482301 0.239497 -1759.46 1384.25 1489.6 
-0.163312 0.482301 0.239497 -1764.85 1372.46 1453.29 
-0.25666 0.575649 0.239497 -1661.79 1150.91 1246.43 
-0.163312 0.575649 0.239497 -1686.16 1137.13 1225.97 
-0.25666 0.482301 0.332845 -1748.24 1250.85 1421.01 
-0.163312 0.482301 0.332845 -1770.39 1255.14 1440.24 
-0.25666 0.575649 0.332845 -1640.37 1030.32 1179.2 
-0.163312 0.575649 0.332845 -1677.15 1029.41 1213.64 
-0.396683 0.342278 0.472868 0 0 0 
-0.209986 0.342278 0.472868 0 0 0 
-0.396683 0.528975 0.472868 0 0 0 
-0.209986 0.528975 0.472868 0 0 0 
-0.676729 0.80902 0.379519 0 0 0 
-0.396683 0.715672 0.286171 0 0 0 
-0.25666 0.668998 0.239497 -1063.18 -1267.79 365.991 
-0.163312 0.668998 0.239497 -1171.36 -1329.62 371.159 
-0.25666 0.762346 0.239497 -962.62 -1594.38 204.695 
-0.163312 0.762346 0.239497 -1042.08 -1637.9 206.639 
-0.25666 0.668998 0.332845 -999.342 -1191.25 370.718 
-0.163312 0.668998 0.332845 -1106.83 -1264.35 405.106 
-0.25666 0.762346 0.332845 -908.119 -1501.52 237.434 
-0.163312 0.762346 0.332845 -988.359 -1564.13 263.885 
-0.443357 0.855695 0.239497 -1371.47 -944.229 317 
-0.350009 0.855695 0.239497 -1482.7 -1082.04 327.92 
-0.443357 0.949043 0.239497 -1595.11 -1044.59 406.46 
-0.350009 0.949043 0.239497 -1690.69 -1152.95 414.047 
-0.443357 0.855695 0.332845 -1289.65 -864.522 326.52 
-0.350009 0.855695 0.332845 -1409.12 -1005.27 355.619 
-0.443357 0.949043 0.332845 -1487.74 -943.589 415.316 
-0.350009 0.949043 0.332845 -1597.25 -1057.29 444.388 
-0.25666 0.855695 0.239497 -910.852 -1055.2 107.485 
-0.163312 0.855695 0.239497 -722.999 -921.408 62.632 
-0.25666 0.949043 0.239497 -815.556 -851.708 92.2857 
-0.163312 0.949043 0.239497 -582.096 -696.842 33.507 
-0.25666 0.855695 0.332845 -960.182 -1068.92 233.71 
-0.163312 0.855695 0.332845 -795.432 -976.619 207.723 
-0.25666 0.949043 0.332845 -896.849 -878.458 237.566 
-0.163312 0.949043 0.332845 -688.863 -764.387 194.183 
-0.396683 0.715672 0.472868 0 0 0 
-0.209986 0.715672 0.472868 0 0 0 
-0.396683 0.902369 0.472868 0 0 0 
-0.25666 0.855695 0.426194 -1130.76 -1078.65 766.957 
-0.163312 0.855695 0.426194 -1179.6 -1260.55 895.328 
-0.25666 0.949043 0.426194 -1286.67 -1046 912.537 
-0.163312 0.949043 0.426194 -1320.07 -1201.89 1022.01 
-0.25666 0.855695 0.519542 -1011.76 -941.775 748.445 
-0.163312 0.855695 0.519542 -1087.76 -1157.84 913.444 
-0.25666 0.949043 0.519542 -1193.68 -939.127 908.893 
-0.163312 0.949043 0.519542 -1260.85 -1132.2 1059.59 
-0.0232891 0.342278 -0.0872232 0 0 0 
0.116734 0.295604 -0.133897 1423.18 237.34 -1496.8 
0.210082 0.295604 -0.133897 1356.86 234.022 -1461.16 
0.116734 0.388952 -0.133897 1208.27 222.909 -1321.13 
0.210082 0.388952 -0.133897 1119.81 181.782 -1266.33 
0.116734 0.295604 -0.0405489 1404.44 232.439 -1456.96 
0.210082 0.295604 -0.0405489 1416.11 229.658 -1461.56 
0.116734 0.388952 -0.0405489 1159.78 227.424 -1320.39 
0.210082 0.388952 -0.0405489 1149.58 189.524 -1303.84 
-0.0699633 0.482301 -0.133897 1360.74 1786.69 -1171.43 
0.0233852 0.482301 -0.133897 1432.71 1794.14 -1280.33 
-0.0699633 0.575649 -0.133897 1273.55 1704.19 -1192.91 
0.0233852 0.575649 -0.133897 1325.52 1665.26 -1295.23 
-0.0699633 0.482301 -0.0405489 1089.95 1725.53 -1063.9 
0.0233852 0.482301 -0.0405489 1185.22 1753.21 -1218.48 
-0.0699633 0.575649 -0.0405489 1050 1638.45 -1120.91 
0.0233852 0.575649 -0.0405489 1129.01 1620.71 -1272.53 
0.116734 0.482301 -0.133897 756.607 476.153 -990.934 
0.210082 0.482301 -0.133897 563.509 224.641 -825.349 
0.116734 0.575649 -0.133897 636.377 263.577 -952.763 
0.210082 0.575649 -0.133897 457.056 26.9779 -784.445 
0.116734 0.482301 -0.0405489 798.408 537.444 -1154.74 
0.210082 0.482301 -0.0405489 645.991 293.08 -1003.69 
0.116734 0.575649 -0.0405489 694.431 315.805 -1145.78 
0.210082 0.575649 -0.0405489 546.551 86.8534 -984.989 
-0.0232891 0.342278 0.0994738 0 0 0 
0.163408 0.342278 0.0994738 0 0 0 
-0.0699633 0.482301 0.0527996 -110.297 981.783 -286.61 
0.0233852 0.482301 0.0527996 -19.2704 944.905 -516.069 
-0.0699633 0.575649 0.0527996 -198.811 903.341 -341.44 
0.0233852 0.575649 0.0527996 -90.6084 863.466 -591.889 
-0.0699633 0.482301 0.146148 -306.464 774.139 -108.149 
0.0233852 0.482301 0.146148 -190.539 705.654 -346.589 
-0.0699633 0.575649 0.146148 -401.482 694.408 -157.921 
0.0233852 0.575649 0.146148 -267.868 635.886 -413.161 
0.116734 0.482301 0.0527996 587.691 623.012 -1351.88 
0.210082 0.482301 0.0527996 622.852 495.6 -1311.57 
0.116734 0.575649 0.0527996 628.57 530.724 -1524.67 
0.210082 0.575649 0.0527996 663.282 415.198 -1468.35 
0.116734 0.482301 0.146148 491.753 544.764 -1196.57 
0.210082 0.482301 0.146148 567.057 453.325 -1176.05 
0.116734 0.575649 0.146148 547.641 489.679 -1369.16 
0.210082 0.575649 0.146148 624.561 407.948 -1334.06 
0.350105 0.342278 -0.0872232 0 0 0 
0.536802 0.342278 -0.0872232 0 0 0 
0.350105 0.528975 -0.0872232 0 0 0 
0.536802 0.528975 -0.0872232 0 0 0 
0.303431 0.295604 0.0527996 754.969 -107.294 -374.722 
0.396779 0.295604 0.0527996 679.696 -108.835 -352.464 
0.303431 0.388952 0.0527996 724.956 -97.4777 -408.571 
0.396779 0.388952 0.0527996 683.504 -109.445 -354.438 
0.303431 0.295604 0.146148 847.331 -155.672 -319.35 
0.396779 0.295604 0.146148 784.894 -139.334 -339.403 
0.303431 0.388952 0.146148 832.951 -138.939 -358.43 
0.396779 0.388952 0.146148 804.877 -136.848 -339.708 
0.536802 0.342278 0.0994738 0 0 0 
0.350105 0.528975 0.0994738 0 0 0 
0.536802 0.528975 0.0994738 0 0 0 
-0.0699633 0.668998 -0.133897 -8.55829 -317.285 -510.926 
0.0233852 0.668998 -0.133897 23.4909 -602.641 -652.508 
-0.0699633 0.762346 -0.133897 -242.572 -704.034 -418.626 
0.0233852 0.762346 -0.133897 -197.996 -1004.55 -561.453 
-0.0699633 0.668998 -0.0405489 -121.646 -404.288 -547.671 
0.0233852 0.668998 -0.0405489 -66.7914 -680.943 -717.13 
-0.0699633 0.762346 -0.0405489 -323.011 -774.163 -456.227 
0.0233852 0.762346 -0.0405489 -259.099 -1062.95 -615.971 
0.116734 0.668998 -0.133897 377.671 -1264.25 -1067.33 
0.210082 0.668998 -0.133897 382.627 -1200.01 -992.378 
0.116734 0.762346 -0.133897 355.75 -1576.39 -1105.07 
0.210082 0.762346 -0.133897 413.066 -1480.29 -1058.96 
0.116734 0.668998 -0.0405489 442.13 -1328.34 -1265.58 
0.210082 0.668998 -0.0405489 462.887 -1253.94 -1184.52 
0.116734 0.762346 -0.0405489 405.666 -1617.5 -1244.74 
0.210082 0.762346 -0.0405489 477.405 -1517.48 -1194.08 
-0.0699633 0.855695 -0.133897 -351.742 -958.218 -527.441 
0.0233852 0.855695 -0.133897 -217.785 -1109.75 -636.41 
-0.0699633 0.949043 -0.133897 -331.848 -886.075 -507.018 
0.0233852 0.949043 -0.133897 -198.849 -996.886 -595.844 
-0.0699633 0.855695 -0.0405489 -339.357 -885.951 -451.952 
0.0233852 0.855695 -0.0405489 -207.271 -1003.45 -537.448 
-0.0699633 0.949043 -0.0405489 -296.864 -784.56 -391.291 
0.0233852 0.949043 -0.0405489 -172.484 -863.106 -455.516 
0.116734 0.855695 -0.133897 470.292 -1865.08 -1176.73 
0.210082 0.855695 -0.133897 654.973 -1886.08 -1215.32 
0.116734 0.949043 -0.133897 431.834 -1676.1 -1066.91 
0.210082 0.949043 -0.133897 628.362 -1720.06 -1120.92 
0.116734 0.855695 -0.0405489 421.4 -1632.28 -948.435 
0.210082 0.855695 -0.0405489 624.392 -1689.83 -1004.72 
0.116734 0.949043 -0.0405489 368.772 -1420.01 -780.889 
0.210082 0.949043 -0.0405489 577.667 -1500.78 -853.311 
-0.0699633 0.668998 0.0527996 -615.489 -468.279 -412.953 
0.0233852 0.668998 0.0527996 -467.359 -472.697 -610.166 
-0.0699633 0.762346 0.0527996 -617.055 -641.875 -383.328 
0.0233852 0.762346 0.0527996 -467.991 -627.831 -546.287 
-0.0699633 0.668998 0.146148 -722.486 -489.552 -319.043 
0.0233852 0.668998 0.146148 -548.081 -430.554 -492.09 
-0.0699633 0.762346 0.146148 -691.896 -617.752 -305.3 
0.0233852 0.762346 0.146148 -520.739 -532.763 -442.016 
0.116734 0.668998 0.0527996 512.456 -563.302 -1510.09 
0.210082 0.668998 0.0527996 598.609 -507.161 -1448.21 
0.116734 0.762346 0.0527996 440.223 -683.125 -1333.24 
0.210082 0.762346 0.0527996 548.222 -634.201 -1287.74 
0.116734 0.668998 0.146148 517.195 -399.133 -1273.4 
0.210082 0.668998 0.146148 642.32 -359.752 -1219.28 
0.116734 0.762346 0.146148 448.774 -478.859 -1098.19 
0.210082 0.762346 0.146148 588.33 -452.524 -1055.28 
-0.0232891 0.902369 0.0994738 0 0 0 
0.163408 0.902369 0.0994738 0 0 0 
0.350105 0.715672 -0.0872232 0 0 0 
0.536802 0.715672 -0.0872232 0 0 0 
0.303431 0.855695 -0.133897 1053.25 -1261.35 -913.732 
0.396779 0.855695 -0.133897 980.011 -1012.97 -755.286 
0.303431 0.949043 -0.133897 1159.3 -1301.09 -975.859 
0.396779 0.949043 -0.133897 1107.66 -1082.17 -837.796 
0.303431 0.855695 -0.0405489 1191.18 -1395.59 -927.88 
0.396779 0.855695 -0.0405489 1139.85 -1187.9 -803.732 
0.303431 0.949043 -0.0405489 1274.27 -1417.45 -956.98 
0.396779 0.949043 -0.0405489 1250.16 -1243.94 -861.801 
0.536802 0.902369 -0.0872232 0 0 0 
0.350105 0.715672 0.0994738 0 0 0 
0.536802 0.715672 0.0994738 0 0 0 
0.303431 0.855695 0.0527996 1192.38 -1360.99 -485.992 
0.396779 0.855695 0.0527996 1270.47 -1382.12 -464.509 
0.303431 0.949043 0.0527996 1187.95 -1347.45 -464.578 
0.396779 0.949043 0.0527996 1295.98 -1388.44 -472.104 
0.303431 0.855695 0.146148 1148.85 -1271.97 -339.741 
0.396779 0.855695 0.146148 1248.7 -1333.2 -335.87 
0.303431 0.949043 0.146148 1106.16 -1242.42 -322.196 
0.396779 0.949043 0.146148 1237.92 -1319.7 -340.714 
0.490128 0.855695 0.0527996 836.344 -608.548 -203.307 
0.583476 0.855695 0.0527996 664.015 -416.876 -138.894 
0.490128 0.949043 0.0527996 968.057 -656.567 -222.1 
0.583476 0.949043 0.0527996 791.635 -463.2 -156.35 
0.490128 0.855695 0.146148 924.434 -659.081 -171.773 
0.583476 0.855695 0.146148 757.176 -475.612 -125.696 
0.490128 0.949043 0.146148 1065.13 -708.154 -177.391 
0.583476 0.949043 0.146148 900.102 -526.447 -130.509 
-0.0232891 0.342278 0.286171 0 0 0 
0.116734 0.295604 0.239497 762.897 -638.963 624.393 
0.210082 0.295604 0.239497 882.059 -670.894 605.615 
0.116734 0.388952 0.239497 467.421 -484.401 396.993 
0.210082 0.388952 0.239497 607.72 -517.772 405.438 
0.116734 0.295604 0.332845 802.074 -714.994 822.375 
0.210082 0.295604 0.332845 918.216 -746.81 796.837 
0.116734 0.388952 0.332845 542.757 -556.673 661.518 
0.210082 0.388952 0.332845 680.061 -587.237 660.27 
-0.0232891 0.528975 0.286171 0 0 0 
0.163408 0.528975 0.286171 0 0 0 
-0.0699633 0.295604 0.426194 -548.392 69.2678 767.476 
0.0233852 0.295604 0.426194 -407.764 -24.1133 921.709 
-0.0699633 0.388952 0.426194 -623.946 61.7223 834.409 
0.0233852 0.388952 0.426194 -480.193 -13.9772 1019.16 
-0.0699633 0.295604 0.519542 -513.552 67.602 692.834 
0.0233852 0.295604 0.519542 -423.603 -8.11206 879.421 
-0.0699633 0.388952 0.519542 -582.578 54.8063 787.589 
0.0233852 0.388952 0.519542 -485.953 -3.95941 1004.96 
0.116734 0.295604 0.426194 644.981 -611.927 1522.57 
0.210082 0.295604 0.426194 735.994 -624.975 1418.16 
0.116734 0.388952 0.426194 639.937 -474.646 1719.64 
0.210082 0.388952 0.426194 746.168 -486.633 1604.55 
0.116734 0.295604 0.519542 538.156 -517.987 1428.78 
0.210082 0.295604 0.519542 613.039 -526.477 1326.22 
0.116734 0.388952 0.519542 570.016 -401.271 1652.66 
0.210082 0.388952 0.519542 655.975 -408.374 1534.63 
-0.0699633 0.482301 0.426194 -730.332 252.904 1396.75 
0.0233852 0.482301 0.426194 -601.612 276.475 1691.27 
-0.0699633 0.575649 0.426194 -733.405 80.7298 1412.32 
0.0233852 0.575649 0.426194 -614.019 102.471 1705.99 
-0.0699633 0.482301 0.519542 -687.975 224.953 1362.89 
0.0233852 0.482301 0.519542 -598.367 275.756 1686.11 
-0.0699633 0.575649 0.519542 -679.26 63.9021 1380.68 
0.0233852 0.575649 0.519542 -597.318 107.279 1697.9 
0.116734 0.482301 0.426194 527.908 386.573 2423.57 
0.210082 0.482301 0.426194 650.194 356.157 2218.26 
0.116734 0.575649 0.426194 474.33 321.438 2398.86 
0.210082 0.575649 0.426194 599.528 313.939 2191.24 
0.116734 0.482301 0.519542 514.675 395.379 2410.53 
0.210082 0.482301 0.519542 616.85 362.441 2202.55 
0.116734 0.575649 0.519542 462.092 322.378 2382.78 
0.210082 0.575649 0.519542 563.139 312.458 2172.46 
0.303431 0.295604 0.239497 954.964 -322.756 122.852 
0.396779 0.295604 0.239497 840.765 -230.122 36.8905 
0.303431 0.388952 0.239497 1032.94 -280.807 104.68 
0.396779 0.388952 0.239497 956.296 -208.829 47.1916 
0.303431 0.295604 0.332845 860.412 -317.129 199.293 
0.396779 0.295604 0.332845 740.662 -213.682 86.7644 
0.303431 0.388952 0.332845 939.31 -273.392 190.132 
0.396779 0.388952 0.332845 854.153 -192.096 97.1515 
0.536802 0.342278 0.286171 0 0 0 
0.303431 0.482301 0.239497 918.014 127.01 60.2266 
0.396779 0.482301 0.239497 891.166 126.962 75.0823 
0.303431 0.575649 0.239497 984.98 70.8073 96.1914 
0.396779 0.575649 0.239497 953.031 63.1135 112.361 
0.303431 0.482301 0.332845 900.242 126.532 136.1 
0.396779 0.482301 0.332845 873.158 128.663 81.9178 
0.303431 0.575649 0.332845 976.676 67.5212 167.41 
0.396779 0.575649 0.332845 948.286 62.3233 111.892 
0.536802 0.528975 0.286171 0 0 0 
0.350105 0.342278 0.472868 0 0 0 
0.536802 0.342278 0.472868 0 0 0 
0.350105 0.528975 0.472868 0 0 0 
0.536802 0.528975 0.472868 0 0 0 
-0.0699633 0.668998 0.239497 -883.152 -559.167 101.146 
0.0233852 0.668998 0.239497 -639.832 -392.855 93.4995 
-0.0699633 0.762346 0.239497 -859.237 -616.305 81.2035 
0.0233852 0.762346 0.239497 -635.812 -407.419 100.68 
-0.0699633 0.668998 0.332845 -866.265 -652.082 283.76 
0.0233852 0.668998 0.332845 -638.494 -507.631 328.836 
-0.0699633 0.762346 0.332845 -846.446 -725.536 255.512 
0.0233852 0.762346 0.332845 -635.985 -541.718 316.022 
0.116734 0.668998 0.239497 481.415 -192.125 322.94 
0.210082 0.668998 0.239497 784.781 -234.674 362.72 
0.116734 0.762346 0.239497 472.009 -203.566 348.258 
0.210082 0.762346 0.239497 774.422 -263.125 386.985 
0.116734 0.668998 0.332845 448.371 -271.086 726.808 
0.210082 0.668998 0.332845 750.387 -298.035 740.081 
0.116734 0.762346 0.332845 445.489 -296.578 694.667 
0.210082 0.762346 0.332845 748.285 -339.177 712.896 
-0.0232891 0.902369 0.286171 0 0 0 
0.163408 0.902369 0.286171 0 0 0 
-0.0699633 0.668998 0.426194 -632.078 -1152.61 962.476 
0.0233852 0.668998 0.426194 -559.905 -1241.86 1153.71 
-0.0699633 0.762346 0.426194 -629.927 -1396.02 917.148 
0.0233852 0.762346 0.426194 -543.276 -1480.69 1063.85 
-0.0699633 0.668998 0.519542 -514.203 -1078.8 936.839 
0.0233852 0.668998 0.519542 -474.576 -1191.53 1125.71 
-0.0699633 0.762346 0.519542 -516.052 -1331.34 924.244 
0.0233852 0.762346 0.519542 -458.882 -1447.57 1067.35 
0.116734 0.668998 0.426194 254.313 -947.271 1526.32 
0.210082 0.668998 0.426194 370.697 -797.089 1388.1 
0.116734 0.762346 0.426194 230.718 -1125.16 1297.99 
0.210082 0.762346 0.426194 372.237 -979.119 1189.77 
0.116734 0.668998 0.519542 194.224 -926.573 1447.23 
0.210082 0.668998 0.519542 268.075 -769.972 1305.63 
0.116734 0.762346 0.519542 172.909 -1118.21 1235.02 
0.210082 0.762346 0.519542 272.761 -961.252 1119.55 
-0.0699633 0.855695 0.426194 -702.549 -1567.33 1060.8 
0.0233852 0.855695 0.426194 -488.149 -1501.51 1035.46 
-0.0699633 0.949043 0.426194 -646.051 -1387.03 965.455 
0.0233852 0.949043 0.426194 -416.735 -1310.33 898.226 
-0.0699633 0.855695 0.519542 -682.265 -1653.28 1262.8 
0.0233852 0.855695 0.519542 -480.354 -1615.42 1248.95 
-0.0699633 0.949043 0.519542 -648.054 -1489.57 1188.1 
0.0233852 0.949043 0.519542 -422.942 -1436.75 1137.49 
0.116734 0.855695 0.426194 294.69 -862.916 757.186 
0.210082 0.855695 0.426194 594.143 -911.58 770.464 
0.116734 0.949043 0.426194 267.233 -715.407 582.747 
0.210082 0.949043 0.426194 563.068 -790.054 623.122 
0.116734 0.855695 0.519542 298.238 -958.261 857.022 
0.210082 0.855695 0.519542 581.076 -978.839 839.016 
0.116734 0.949043 0.519542 294.084 -817.062 737.752 
0.210082 0.949043 0.519542 581.286 -864.928 747.14 
0.303431 0.668998 0.239497 1461.67 -685.164 353.894 
0.396779 0.668998 0.239497 1367.33 -662.161 306.354 
0.303431 0.762346 0.239497 1459.24 -818.448 353.675 
0.396779 0.762346 0.239497 1382.74 -803.269 303.825 
0.303431 0.668998 0.332845 1450.83 -693.454 406.852 
0.396779 0.668998 0.332845 1363.35 -661.595 305.713 
0.303431 0.762346 0.332845 1457.84 -836.876 426.087 
0.396779 0.762346 0.332845 1384.51 -809.702 330.811 
0.536802 0.715672 0.286171 0 0 0 
0.303431 0.855695 0.239497 922.753 -817.819 80.0287 
0.396779 0.855695 0.239497 1024.81 -888.352 83.2865 
0.303431 0.949043 0.239497 726.452 -712.728 30.1062 
0.396779 0.949043 0.239497 874.657 -796.478 47.4944 
0.303431 0.855695 0.332845 981.945 -892.389 287.01 
0.396779 0.855695 0.332845 1061.4 -938.983 276.38 
0.303431 0.949043 0.332845 799.444 -790.406 241.195 
0.396779 0.949043 0.332845 924.449 -852.257 252.545 
0.490128 0.855695 0.239497 900.506 -602.111 79.6178 
0.583476 0.855695 0.239497 764.754 -481.861 68.6393 
0.490128 0.949043 0.239497 1111.88 -661.56 122.133 
0.583476 0.949043 0.239497 998.507 -553.906 116.71 
0.490128 0.855695 0.332845 809.222 -548.709 126.17 
0.583476 0.855695 0.332845 667.589 -420.852 88.0205 
0.490128 0.949043 0.332845 1017.99 -607.189 178.715 
0.583476 0.949043 0.332845 898.178 -492.058 144.582 
0.350105 0.715672 0.472868 0 0 0 
0.536802 0.715672 0.472868 0 0 0 
0.303431 0.855695 0.426194 1592.51 -1817.73 1112.86 
0.396779 0.855695 0.426194 1549.61 -1725.69 1022.11 
0.303431 0.949043 0.426194 1639.54 -1806.73 1158.9 
0.396779 0.949043 0.426194 1621.77 -1741.12 1099.46 
0.303431 0.855695 0.519542 1478.8 -1729.83 1102.91 
0.396779 0.855695 0.519542 1421.71 -1618.05 1000.51 
0.303431 0.949043 0.519542 1567.11 -1740.99 1177.68 
0.396779 0.949043 0.519542 1525.86 -1652.29 1097.23 
0.536802 0.902369 0.472868 0 0 0 
1.37694 0.248929 -0.180572 0 0 0 
-0.676729 1.18241 -0.740663 0 0 0 
-0.303335 1.18241 -0.740663 0 0 0 
-0.676729 1.55581 -0.740663 0 0 0 
-0.303335 1.55581 -0.740663 0 0 0 
-0.770077 1.08907 -0.460617 0 0 0 
-0.58338 1.08907 -0.460617 0 0 0 
-0.770077 1.27576 -0.460617 0 0 0 
-0.58338 1.27576 -0.460617 0 0 0 
