ply
format ascii 1.0
comment generated by OnePiece
element vertex 687
property float x
property float y
property float z
property float nx
property float ny
property float nz
property uchar red
property uchar green
property uchar blue
end_header
-0.04372 0.168227 0.002343 -0.27726 0.722744 0.633062 255 255 255 
-0.079004 0.128505 0.053149 -0.162749 0.0747212 0.983834 255 255 255 
-0.079779 0.134489 0.05099 -0.270934 0.426078 0.863164 255 255 255 
-0.05913 0.150397 0.03449 0.600413 0.389037 0.698681 255 255 255 
-0.065692 0.149618 0.038161 0.264522 0.631443 0.728909 255 255 255 
-0.069373 0.160618 -0.009191 0.0645067 0.900856 0.429299 255 255 255 
-0.045226 0.129355 0.020378 0.771892 0.500136 0.392486 255 255 255 
-0.080901 0.125587 0.052155 -0.424053 -0.198679 0.883576 255 255 255 
-0.029996 0.178111 -0.005236 -0.373908 0.796453 0.475243 255 255 255 
-0.063939 0.152627 0.034481 0.26962 0.700383 0.660885 255 255 255 
-0.079088 0.170445 -0.041373 -0.964123 -0.20662 -0.16666 255 255 255 
-0.091079 0.11506 0.040142 -0.816134 -0.523606 0.244462 255 255 255 
-0.077004 0.155213 0.024535 -0.18396 0.971794 0.147565 255 255 255 
-0.025374 0.1584 -0.00148 0.617806 -0.337716 0.710115 255 255 255 
-0.067819 0.154544 0.030234 0.0257052 0.935991 0.351083 255 255 255 
-0.032597 0.174987 -0.002595 0.617838 0.221653 0.754418 255 255 255 
-0.078641 0.163872 -0.028388 -0.8782 0.362959 0.311489 255 255 255 
-0.061996 0.147615 -0.004326 0.863539 0.278291 -0.42054 255 255 255 
-0.042121 0.128251 0.001075 0.541876 0.779853 -0.313367 255 255 255 
-0.081264 0.153812 0.025898 -0.314841 0.915367 0.250954 255 255 255 
-0.061898 0.122971 -0.008773 0.0572612 0.290981 -0.955014 255 255 255 
-0.089385 0.099024 0.017522 -0.970983 0.194358 0.139349 255 255 255 
-0.07388 0.120916 0.053396 -0.137217 -0.140139 0.980578 255 255 255 
-0.074034 0.144069 0.044995 0.147831 0.619478 0.770969 255 255 255 
-0.054057 0.156716 -0.002487 -0.599726 0.248557 -0.760624 255 255 255 
-0.047311 0.16296 0.006074 0.156655 0.573814 0.803863 255 255 255 
-0.084123 0.108321 0.024731 -0.900188 -0.169079 0.401341 255 255 255 
-0.074294 0.163569 -0.015534 -0.497634 0.71384 0.492741 255 255 255 
-0.094297 0.126177 0.019225 -0.992533 0.120412 -0.0194897 255 255 255 
-0.077256 0.145659 0.043123 -0.118188 0.677776 0.725708 255 255 255 
-0.068531 0.1563 0.020998 -0.0154307 0.995249 0.0961273 255 255 255 
-0.074472 0.135075 0.050689 0.134458 0.458429 0.878501 255 255 255 
-0.034023 0.175971 -0.003727 -0.186935 0.858958 0.476704 255 255 255 
-0.075406 0.168391 -0.026793 -0.519851 0.723943 0.4535 255 255 255 
-0.061896 0.154242 -0.019019 0.987316 0.0549191 0.148964 255 255 255 
-0.072647 0.140989 0.046977 0.222715 0.530455 0.817934 255 255 255 
-0.093644 0.117894 0.018662 -0.898516 -0.435855 0.0519579 255 255 255 
-0.078081 0.123519 0.052137 -0.377411 -0.223895 0.898572 255 255 255 
-0.026581 0.155677 -0.004196 0.444811 -0.82111 0.357662 255 255 255 
-0.082472 0.116241 -0.002324 -0.552636 -0.272781 -0.787518 255 255 255 
-0.086161 0.108386 0.018245 -0.950117 -0.18066 0.254243 255 255 255 
-0.086723 0.099917 0.003554 -0.919513 0.214224 -0.329552 255 255 255 
-0.075718 0.125227 0.053087 -0.0279494 0.0674698 0.99733 255 255 255 
-0.077057 0.131935 0.052462 -0.100885 0.282886 0.953833 255 255 255 
-0.061121 0.155697 0.022517 0.201835 0.972588 0.115481 255 255 255 
-0.088892 0.099209 0.00957 -0.966613 0.195847 -0.16524 255 255 255 
-0.08349 0.107247 0.000758 -0.878082 0.127669 -0.461165 255 255 255 
-0.070113 0.117903 0.052714 0.179156 -0.336462 0.924498 255 255 255 
-0.035526 0.175956 -0.004868 -0.186935 0.858958 0.476704 255 255 255 
-0.070831 0.122544 0.053275 0.29693 0.0967868 0.949982 255 255 255 
-0.04902 0.117713 0.031581 0.719513 -0.0913984 0.688439 255 255 255 
-0.057685 0.155617 0.012983 0.279858 0.944318 0.173039 255 255 255 
-0.028399 0.180706 -0.007847 -0.379138 0.869484 0.316625 255 255 255 
-0.076566 0.11674 0.051489 -0.272972 -0.479251 0.834149 255 255 255 
-0.086227 0.114668 0.00221 -0.743229 -0.363159 -0.561895 255 255 255 
-0.089495 0.095632 0.014235 -0.997428 0.0682497 0.0219061 255 255 255 
-0.067132 0.157094 -0.006203 0.652379 0.711171 0.261986 255 255 255 
-0.073697 0.15613 0.01436 -0.081279 0.996201 -0.0312472 255 255 255 
-0.06894 0.156528 -0.001972 0.295926 0.931445 0.211749 255 255 255 
-0.008983 0.169264 -0.022683 -0.909381 0.383184 0.161854 255 255 255 
-0.073019 0.156021 0.022419 -0.110835 0.986029 0.124345 255 255 255 
-0.06476 0.153116 -0.002037 0.502416 0.864545 0.0118452 255 255 255 
-0.078436 0.13928 0.048329 -0.16988 0.558076 0.812214 255 255 255 
-0.055369 0.154425 0.016161 0.457643 0.866576 0.199021 255 255 255 
-0.094244 0.122074 0.023568 -0.972314 -0.183625 0.144524 255 255 255 
-0.069438 0.164799 -0.017219 0.276704 0.855644 0.437388 255 255 255 
-0.085237 0.110774 0.024538 -0.736564 -0.607094 0.298179 255 255 255 
-0.072653 0.165679 -0.018212 -0.111921 0.880469 0.460703 255 255 255 
-0.073001 0.118267 0.053035 -0.0888708 -0.372144 0.923911 255 255 255 
-0.068466 0.134981 -0.008336 -0.0207364 -0.0260597 -0.999445 255 255 255 
-0.074684 0.107861 -0.009048 -0.590048 0.263084 -0.763302 255 255 255 
-0.064959 0.15852 -0.012595 0.771426 0.509661 0.380983 255 255 255 
-0.078932 0.150931 0.035152 -0.311313 0.80238 0.509187 255 255 255 
-0.074114 0.099443 0.038338 -0.469339 0.093514 0.878052 255 255 255 
-0.072142 0.105367 0.037523 -0.458982 0.131446 0.878668 255 255 255 
-0.05184 0.16062 0.007142 -0.160945 0.794067 0.586135 255 255 255 
-0.054201 0.114517 0.034844 0.563172 -0.323747 0.76028 255 255 255 
-0.069382 0.108658 0.037508 0.168383 -0.570429 0.803901 255 255 255 
-0.067691 0.107341 0.038018 0.296318 -0.807456 0.510108 255 255 255 
-0.063782 0.110373 0.03758 0.480013 -0.630642 0.609818 255 255 255 
-0.043724 0.161914 0.005771 0.41674 0.247567 0.874665 255 255 255 
-0.06283 0.151895 -0.009237 0.943142 0.30027 0.142549 255 255 255 
-0.059196 0.113208 0.036235 0.505056 -0.491244 0.709646 255 255 255 
-0.072146 0.134864 -0.007759 -0.260175 0.0746439 -0.962672 255 255 255 
-0.019409 0.170411 -0.020995 0.482728 0.300166 0.822724 255 255 255 
-0.05553 0.149055 -0.00196 -0.0239114 0.223288 -0.974459 255 255 255 
-0.052277 0.117751 0.033769 0.671992 -0.150857 0.72503 255 255 255 
-0.063954 0.146947 0.038484 0.617616 0.225031 0.753599 255 255 255 
-0.031358 0.153622 -0.004674 0.516952 -0.855571 -0.0275531 255 255 255 
-0.056802 0.145147 0.03174 0.797878 -0.0114058 0.60271 255 255 255 
-0.05098 0.134866 0.027585 0.810159 0.42443 0.404353 255 255 255 
-0.019712 0.168291 -0.013021 0.63197 0.65751 -0.410237 255 255 255 
-0.057335 0.123401 0.040231 0.59279 -0.0642464 0.80279 255 255 255 
-0.054173 0.123379 0.037576 0.690003 -0.0284623 0.723247 255 255 255 
-0.042764 0.157275 0.005202 0.420677 0.299435 0.85637 255 255 255 
-0.03407 0.16149 -0.013787 -0.214731 -0.306834 -0.927224 255 255 255 
-0.066299 0.123371 0.050616 0.673154 0.0629895 0.736815 255 255 255 
-0.045301 0.156951 0.007204 0.471398 0.212579 0.855917 255 255 255 
-0.030072 0.172583 -0.00636 0.694925 0.0816619 0.71443 255 255 255 
-0.034508 0.154475 0.00165 0.465651 -0.510481 0.722896 255 255 255 
-0.059937 0.127262 0.040771 0.655922 0.246008 0.713615 255 255 255 
-0.036752 0.158021 0.004186 0.279781 0.439332 0.853645 255 255 255 
-0.037885 0.161997 0.000247 0.50182 0.271221 0.82135 255 255 255 
-0.022048 0.183486 -0.012095 0.846512 -0.318225 0.426791 255 255 255 
-0.024365 0.180968 -0.009831 0.701801 0.067154 0.709201 255 255 255 
-0.044882 0.15053 0.007645 0.753325 -0.261299 0.60351 255 255 255 
-0.067504 0.114241 0.048036 0.494282 -0.691586 0.526683 255 255 255 
-0.016258 0.160313 -0.009693 0.816819 -0.0839524 0.570753 255 255 255 
-0.063926 0.167924 -0.04073 0.959192 0.2746 -0.0674264 255 255 255 
-0.041665 0.149961 0.004541 0.698375 -0.477298 0.533348 255 255 255 
-0.035203 0.164936 -0.002681 0.630792 0.0607525 0.77357 255 255 255 
-0.039938 0.149228 0.001602 0.573786 -0.71843 0.393229 255 255 255 
-0.046989 0.126008 0.026986 0.853634 0.209898 0.47671 255 255 255 
-0.029265 0.161404 -0.002104 0.433099 0.52271 0.734302 255 255 255 
-0.068701 0.144635 0.043042 0.330041 0.523227 0.785689 255 255 255 
-0.05607 0.150007 0.029868 0.799309 0.376141 0.46864 255 255 255 
-0.041804 0.155821 0.006455 0.434378 0.0769577 0.897437 255 255 255 
-0.068369 0.122893 0.052438 0.448756 0.0566811 0.891855 255 255 255 
-0.018383 0.185437 -0.017136 0.810422 0.192225 0.553414 255 255 255 
-0.059375 0.119982 0.040548 0.647228 -0.247119 0.72113 255 255 255 
-0.026292 0.159634 -0.000518 0.563655 -0.0873735 0.821377 255 255 255 
-0.049508 0.129495 0.030259 0.800086 0.292499 0.523743 255 255 255 
-0.064205 0.122439 0.048008 0.787205 0.0574637 0.614009 255 255 255 
-0.065424 0.140113 0.041309 0.73003 0.000893205 0.683415 255 255 255 
-0.04935 0.149135 0.011274 0.786884 -0.107577 0.607652 255 255 255 
-0.069761 0.134429 0.048265 0.48118 0.324977 0.814159 255 255 255 
-0.056917 0.126235 0.039427 0.586783 0.20096 0.784411 255 255 255 
-0.058299 0.138855 0.032937 0.683058 0.0156832 0.730196 255 255 255 
-0.064348 0.126281 0.04665 0.767586 0.275316 0.578803 255 255 255 
-0.057031 0.11562 0.036495 0.476957 -0.39106 0.787137 255 255 255 
-0.030134 0.170113 -0.007359 0.707408 -0.056289 0.70456 255 255 255 
-0.037077 0.159864 0.00161 0.310728 0.293561 0.90403 255 255 255 
-0.056033 0.137311 0.031971 0.672569 0.286497 0.682327 255 255 255 
-0.067676 0.141503 0.043868 0.605624 0.3295 0.724327 255 255 255 
-0.024366 0.176933 -0.01172 0.699831 -0.0396208 0.713209 255 255 255 
-0.013253 0.166272 -0.01412 0.53864 0.542621 0.644538 255 255 255 
-0.017969 0.18078 -0.018103 0.613619 0.142215 0.77669 255 255 255 
-0.062146 0.135998 0.036701 0.686427 0.218514 0.693592 255 255 255 
-0.0328 0.159487 0.002196 0.333774 0.323836 0.885283 255 255 255 
-0.066702 0.132106 0.045481 0.723862 0.296812 0.622837 255 255 255 
-0.041601 0.15978 0.003537 0.459441 0.306503 0.833648 255 255 255 
-0.016531 0.16325 -0.009248 0.517209 0.451861 0.726854 255 255 255 
-0.017892 0.161138 -0.006707 0.640315 0.133147 0.756484 255 255 255 
-0.031356 0.158099 0.001913 0.40656 0.101768 0.907939 255 255 255 
-0.05826 0.140995 0.032441 0.708478 -0.0451402 0.704288 255 255 255 
-0.066817 0.119515 0.05149 0.571294 -0.216137 0.791775 255 255 255 
-0.06809 0.116471 0.051151 0.40628 -0.374244 0.833593 255 255 255 
-0.061296 0.1452 0.037138 0.635805 -0.0100747 0.771784 255 255 255 
-0.062763 0.13778 0.036679 0.690205 0.208661 0.692876 255 255 255 
-0.015815 0.175049 -0.018654 0.297014 0.194563 0.934841 255 255 255 
-0.092269 0.114752 0.017017 -0.829737 -0.55424 0.0659941 255 255 255 
-0.063713 0.112743 0.038007 0.480013 -0.630642 0.609818 255 255 255 
-0.061096 0.117017 0.039654 0.601156 -0.464557 0.650229 255 255 255 
-0.055517 0.129561 0.036598 0.614875 0.342128 0.710547 255 255 255 
-0.040802 0.164361 0.003745 0.494443 0.0785598 0.865653 255 255 255 
-0.010987 0.166212 -0.016048 0.928654 -0.212217 0.304247 255 255 255 
-0.030351 0.164482 -0.005329 0.340924 0.508067 0.790973 255 255 255 
-0.0656 0.113295 0.042319 0.607692 -0.650929 0.454974 255 255 255 
-0.078225 0.149625 -0.002502 -0.940624 0.208597 -0.267795 255 255 255 
-0.046095 0.152969 0.009003 0.560276 0.111506 0.820767 255 255 255 
-0.052369 0.146829 0.018935 0.946214 0.15728 0.28274 255 255 255 
-0.021592 0.157634 -0.006862 0.605159 -0.601983 0.520959 255 255 255 
-0.089481 0.1384 0.025061 -0.986815 -0.0172776 0.16093 255 255 255 
-0.053217 0.13222 0.032978 0.682434 0.394245 0.615512 255 255 255 
-0.037777 0.155519 0.00437 0.434375 -0.0744516 0.89765 255 255 255 
-0.090549 0.135119 0.021681 -0.965682 0.208464 0.15492 255 255 255 
-0.063367 0.130371 0.04167 0.639056 0.414432 0.647961 255 255 255 
-0.052116 0.141799 0.02051 0.92181 0.24745 0.298387 255 255 255 
-0.054731 0.142672 0.02898 0.823899 0.0834711 0.560557 255 255 255 
-0.047657 0.130775 0.025524 0.836795 0.432283 0.336015 255 255 255 
-0.011447 0.171311 -0.019603 -0.786553 -0.36545 -0.497776 255 255 255 
-0.036647 0.166401 -0.000282 0.662952 0.0095619 0.748601 255 255 255 
-0.046654 0.159178 0.007802 0.36375 0.331775 0.870409 255 255 255 
-0.04557 0.146636 0.005651 0.753433 -0.55773 0.348245 255 255 255 
-0.064287 0.134636 0.039946 0.708421 0.315444 0.631375 255 255 255 
-0.061129 0.131783 0.038916 0.596721 0.465755 0.65345 255 255 255 
-0.047844 0.122151 0.028833 0.797817 0.0581669 0.600087 255 255 255 
-0.049537 0.124913 0.031778 0.788463 0.0550585 0.612613 255 255 255 
-0.071135 0.138177 0.047854 0.410942 0.352783 0.840637 255 255 255 
-0.062442 0.140848 0.036966 0.752415 -0.0192855 0.658407 255 255 255 
-0.062165 0.156668 -0.017838 0.93115 0.294367 0.215195 255 255 255 
-0.063603 0.115715 0.042572 0.727678 -0.529544 0.435967 255 255 255 
-0.049666 0.120638 0.032163 0.779137 0.0249543 0.626357 255 255 255 
-0.029177 0.1762 -0.005624 0.430013 0.0335371 0.9022 255 255 255 
-0.058203 0.13271 0.036919 0.523934 0.445925 0.725703 255 255 255 
-0.054726 0.120713 0.037451 0.665746 -0.178555 0.7245 255 255 255 
-0.019926 0.164897 -0.00999 0.237326 0.835294 0.495943 255 255 255 
-0.05586 0.117743 0.037253 0.526397 -0.350801 0.774497 255 255 255 
-0.063757 0.159122 -0.050156 0.822737 -0.482623 -0.300299 255 255 255 
-0.018528 0.176532 -0.017044 0.957799 0.115628 0.263158 255 255 255 
-0.077721 0.113559 0.048156 -0.294215 -0.608564 0.736944 255 255 255 
-0.053078 0.137547 0.028266 0.765628 0.364644 0.529952 255 255 255 
-0.062991 0.119995 0.045236 0.855307 -0.124386 0.50297 255 255 255 
-0.065398 0.11752 0.048736 0.780888 -0.260268 0.567868 255 255 255 
-0.061946 0.164792 -0.056648 -0.738949 0.515887 -0.433377 255 255 255 
-0.022876 0.173928 -0.013431 0.927073 0.0832399 -0.365523 255 255 255 
-0.051942 0.12566 0.034588 0.754647 0.153568 0.637906 255 255 255 
-0.031582 0.166419 -0.005732 0.702582 0.0891669 0.705994 255 255 255 
-0.022602 0.162504 -0.006072 0.765912 -0.349324 0.53977 255 255 255 
-0.012894 0.17879 -0.022625 0.864675 0.0200616 0.50193 255 255 255 
-0.024939 0.170311 -0.01133 0.659063 0.733102 0.167922 255 255 255 
-0.048469 0.145596 0.008366 0.776595 -0.549751 0.307691 255 255 255 
-0.023344 0.161035 -0.003186 0.516018 -0.448223 0.729946 255 255 255 
-0.092595 0.119438 0.026803 -0.897557 -0.433583 0.0799899 255 255 255 
-0.074315 0.137617 -0.00667 -0.400835 -0.19535 -0.895081 255 255 255 
-0.092499 0.121315 0.029256 -0.986645 -0.142242 0.0793631 255 255 255 
-0.077378 0.157643 -0.014134 -0.993379 0.111409 -0.0280306 255 255 255 
-0.092907 0.12307 0.036523 -0.998021 0.0347085 0.0524431 255 255 255 
-0.061511 0.123736 0.043063 0.763781 0.0261252 0.644947 255 255 255 
-0.068145 0.127487 0.050149 0.615858 0.321902 0.719096 255 255 255 
-0.020617 0.182376 -0.014299 0.489382 -0.815788 0.308214 255 255 255 
-0.050718 0.152763 0.011817 0.646909 0.447543 0.617426 255 255 255 
-0.06001 0.142845 0.03545 0.700577 -0.0617096 0.710904 255 255 255 
-0.058603 0.146372 0.033809 0.756664 0.0804767 0.648833 255 255 255 
-0.075918 0.149977 -0.016842 -0.936173 -0.325925 -0.131728 255 255 255 
-0.090254 0.113663 0.03772 -0.650227 -0.754833 0.0862147 255 255 255 
-0.090594 0.113731 0.010277 -0.812269 -0.537108 -0.227451 255 255 255 
-0.062542 0.176795 -0.057822 0.828881 0.55441 0.074747 255 255 255 
-0.011092 0.179921 -0.025996 0.910597 0.303613 0.280415 255 255 255 
-0.062263 0.152199 -0.022579 0.912182 -0.407451 -0.0436652 255 255 255 
-0.011184 0.1645 -0.016152 0.386489 -0.858316 -0.33752 255 255 255 
-0.062373 0.15313 -0.028997 0.889655 -0.445254 -0.101308 255 255 255 
-0.009249 0.177259 -0.02827 0.238178 0.167019 0.956753 255 255 255 
-0.081269 0.108794 0.029441 -0.741185 -0.534512 0.40613 255 255 255 
-0.035101 0.152034 -0.000133 0.475937 -0.769077 0.426621 255 255 255 
-0.014223 0.161674 -0.013349 0.728288 -0.663823 0.170105 255 255 255 
-0.048664 0.136385 0.006806 0.956504 0.188667 -0.222495 255 255 255 
-0.009584 0.174261 -0.028391 0.392014 0.350297 0.850657 255 255 255 
-0.053832 0.149817 0.025067 0.893794 0.339277 0.293296 255 255 255 
-0.083818 0.111091 0.028524 -0.634337 -0.757427 0.154664 255 255 255 
-0.062514 0.172131 -0.052788 -0.904046 -0.36078 -0.229215 255 255 255 
-0.062346 0.147455 -0.00766 0.944113 -0.112192 -0.309943 255 255 255 
-0.049423 0.142835 0.008973 0.970783 -0.0370083 0.237087 255 255 255 
-0.082762 0.111623 0.044221 -0.273394 -0.814588 0.511569 255 255 255 
-0.052166 0.150137 0.017449 0.860383 0.360715 0.360036 255 255 255 
-0.063617 0.148014 -0.02017 0.712633 -0.675857 -0.188074 255 255 255 
-0.051493 0.137964 0.023662 0.860547 0.424247 0.281909 255 255 255 
-0.061518 0.175174 -0.060632 0.765277 0.344083 -0.54402 255 255 255 
-0.062682 0.167441 -0.045714 0.912649 0.322104 0.251634 255 255 255 
-0.053342 0.144012 0.024261 0.93434 0.17103 0.312661 255 255 255 
-0.008696 0.172916 -0.026709 0.0821313 0.563564 0.821979 255 255 255 
-0.06307 0.158975 -0.042952 0.919189 -0.377114 0.113473 255 255 255 
-0.085911 0.109688 0.007658 -0.904118 -0.298909 -0.305325 255 255 255 
-0.088195 0.103146 0.017509 -0.975864 0.192545 0.103037 255 255 255 
-0.061954 0.168653 -0.052621 -0.988898 0.0961576 -0.113292 255 255 255 
-0.090558 0.11276 0.016141 -0.821725 -0.569865 0.00467147 255 255 255 
-0.088469 0.111243 0.012679 -0.844301 -0.534965 -0.0311212 255 255 255 
-0.093576 0.124746 0.026213 -0.986778 0.018552 0.161011 255 255 255 
-0.09319 0.120199 0.037914 -0.976622 -0.172197 0.128677 255 255 255 
-0.00923 0.173145 -0.024198 0.493243 0.661098 0.565385 255 255 255 
-0.036993 0.150639 -0.002037 0.412425 -0.908603 0.0659288 255 255 255 
-0.06188 0.160004 -0.025806 0.968306 0.226388 0.105506 255 255 255 
-0.076538 0.153449 -0.012899 -0.986571 -0.145558 -0.0741024 255 255 255 
-0.083159 0.146743 0.003076 -0.820208 0.235455 -0.521363 255 255 255 
-0.087056 0.105628 0.009765 -0.961179 0.17155 -0.216113 255 255 255 
-0.071448 0.181053 -0.055479 -0.656421 0.117538 -0.745182 255 255 255 
-0.085632 0.124611 -0.002734 -0.660372 -0.0358111 -0.750084 255 255 255 
-0.091822 0.127473 0.036459 -0.964165 0.250664 0.0869141 255 255 255 
-0.062425 0.163666 -0.049667 0.975406 -0.172372 -0.137369 255 255 255 
-0.071169 0.147402 -0.027591 -0.350598 -0.91182 -0.213697 255 255 255 
-0.050365 0.137158 0.001953 0.804261 0.151713 -0.574585 255 255 255 
-0.050493 0.141599 0.016292 0.941729 0.243556 0.232006 255 255 255 
-0.061407 0.172688 -0.058266 0.986715 0.158507 0.0356292 255 255 255 
-0.074853 0.149931 -0.027753 -0.922082 -0.386977 0.00380293 255 255 255 
-0.074227 0.16437 -0.03824 -0.749261 -0.546506 -0.374084 255 255 255 
-0.009785 0.169285 -0.024757 -0.832208 0.501285 0.236947 255 255 255 
-0.089578 0.120783 0.003523 -0.867753 -0.124434 -0.481166 255 255 255 
-0.062312 0.163711 -0.040624 0.994577 0.102899 -0.01509 255 255 255 
-0.048434 0.13755 0.013245 0.93247 0.359137 0.038991 255 255 255 
-0.089313 0.13653 0.030459 -0.995206 0.0601219 0.0771411 255 255 255 
-0.07423 0.156527 -0.025167 -0.959948 -0.249583 -0.127312 255 255 255 
-0.048024 0.144266 0.00425 0.77405 -0.616413 -0.144507 255 255 255 
-0.09202 0.116115 0.035843 -0.914642 -0.403115 -0.0304536 255 255 255 
-0.062059 0.156978 -0.033785 0.98664 -0.0995624 -0.128953 255 255 255 
-0.009702 0.167389 -0.01936 -0.898182 -0.285205 -0.334554 255 255 255 
-0.02946 0.155503 -0.001191 0.529687 -0.49813 0.686512 255 255 255 
-0.086396 0.104794 0.005982 -0.922896 0.255206 -0.288328 255 255 255 
-0.054911 0.146623 0.028439 0.873068 0.104036 0.47637 255 255 255 
-0.090822 0.122769 0.0061 -0.913716 -0.00475567 -0.406326 255 255 255 
-0.09304 0.120264 0.011217 -0.958747 -0.13967 -0.247582 255 255 255 
-0.011243 0.164575 -0.018241 0.386489 -0.858316 -0.33752 255 255 255 
-0.051108 0.145202 0.014279 0.939471 0.136607 0.314217 255 255 255 
-0.092737 0.120731 0.032693 -0.981911 -0.185929 -0.0358068 255 255 255 
-0.062279 0.151666 -0.014673 0.994988 -0.0848421 0.0529281 255 255 255 
-0.091044 0.141999 0.02173 -0.990959 -0.0827836 0.105581 255 255 255 
-0.074004 0.178185 -0.053916 0.151043 0.985605 -0.0759555 255 255 255 
-0.061769 0.16068 -0.034046 0.988731 0.144474 0.0392323 255 255 255 
-0.049747 0.141125 0.005294 0.886519 -0.415585 -0.203404 255 255 255 
-0.09095 0.138954 0.017371 -0.975375 -0.102367 -0.195357 255 255 255 
-0.072455 0.176107 -0.053535 0.151043 0.985605 -0.0759556 255 255 255 
-0.075863 0.150713 -0.009021 -0.970514 -0.0673834 -0.231435 255 255 255 
-0.08527 0.102678 0.001394 -0.889839 0.258807 -0.375774 255 255 255 
-0.077026 0.113968 -0.004617 -0.586001 -0.0254074 -0.809912 255 255 255 
-0.085149 0.139655 0.002481 -0.803878 0.267603 -0.531196 255 255 255 
-0.063313 0.165033 -0.032895 0.837215 0.532709 0.123664 255 255 255 
-0.061591 0.156816 -0.025946 0.996185 0.0863448 -0.0126917 255 255 255 
-0.044843 0.146294 0.001711 0.522265 -0.849212 0.0779655 255 255 255 
-0.064124 0.179536 -0.05873 0.540337 0.787956 -0.29523 255 255 255 
-0.06707 0.180727 -0.056619 -0.597501 0.195897 -0.777571 255 255 255 
-0.064794 0.178853 -0.055883 -0.349785 -0.0209496 -0.936596 255 255 255 
-0.064371 0.172962 -0.049226 -0.823745 -0.520887 -0.223879 255 255 255 
-0.070382 0.180712 -0.053173 -0.0546638 -0.930078 -0.363273 255 255 255 
-0.075269 0.152329 0.034374 -0.203998 0.871167 0.446602 255 255 255 
-0.062116 0.156008 0.018034 0.118661 0.992059 0.0417039 255 255 255 
-0.056011 0.153817 0.025369 0.626481 0.707538 0.326973 255 255 255 
-0.037278 0.172891 -0.000866 -0.429323 0.624483 0.652459 255 255 255 
-0.074159 0.179873 -0.050795 -0.00317737 0.94486 0.327459 255 255 255 
-0.07904 0.155374 0.015142 -0.235541 0.971051 -0.0397434 255 255 255 
-0.072506 0.154595 0.029589 -0.100588 0.942764 0.317929 255 255 255 
-0.067738 0.177289 -0.050376 -0.465293 -0.802181 -0.374177 255 255 255 
-0.059576 0.154724 0.026373 0.342618 0.904401 0.254308 255 255 255 
-0.077383 0.153466 0.030895 -0.204677 0.901394 0.38157 255 255 255 
-0.081497 0.154731 0.019697 -0.294009 0.95234 0.0812906 255 255 255 
-0.072223 0.158967 -0.005424 -0.378362 0.799181 0.467067 255 255 255 
-0.013709 0.184912 -0.02555 0.722251 -0.00339948 0.691623 255 255 255 
-0.043465 0.124511 0.022519 0.774245 0.342512 0.532195 255 255 255 
-0.069104 0.155595 0.001637 0.197723 0.977258 0.0766283 255 255 255 
-0.073748 0.155393 0.002349 -0.227649 0.972993 -0.038222 255 255 255 
-0.068192 0.174398 -0.045366 -0.467289 0.872785 0.141025 255 255 255 
-0.060053 0.152804 0.032888 0.372001 0.735746 0.565945 255 255 255 
-0.072777 0.178545 -0.048209 -0.0651185 0.87986 0.470751 255 255 255 
-0.076596 0.177532 -0.047118 -0.797368 0.58812 0.135348 255 255 255 
-0.086368 0.109065 0.011981 -0.899708 -0.435709 0.0261388 255 255 255 
-0.049105 0.136669 0.019314 0.845447 0.470325 0.253007 255 255 255 
-0.042931 0.129284 0.00927 0.820484 0.567268 -0.0708089 255 255 255 
-0.06532 0.153903 0.000914 0.375756 0.893374 -0.246355 255 255 255 
-0.092675 0.117019 0.01189 -0.891497 -0.41295 -0.186296 255 255 255 
-0.06574 0.155653 0.026018 0.0351473 0.980207 0.194829 255 255 255 
-0.086562 0.142492 0.008433 -0.884953 0.183076 -0.428185 255 255 255 
-0.070732 0.1557 0.006906 -0.0265542 0.991113 -0.130346 255 255 255 
-0.044286 0.126066 0.020795 0.775303 0.430918 0.461752 255 255 255 
-0.070222 0.151435 0.036719 0.0736797 0.824121 0.561602 255 255 255 
-0.015211 0.184636 -0.022057 0.891703 0.129035 0.433837 255 255 255 
-0.017271 0.186996 -0.019978 0.888513 0.130605 0.439871 255 255 255 
-0.083561 0.152559 0.007681 -0.574189 0.692631 -0.436543 255 255 255 
-0.08813 0.097541 0.005679 -0.943253 0.177797 -0.280467 255 255 255 
-0.088399 0.13899 0.010641 -0.938212 0.0713953 -0.338617 255 255 255 
-0.067781 0.156145 0.014276 0.00178855 0.999562 -0.0295272 255 255 255 
-0.088746 0.136256 0.007148 -0.882112 0.361545 -0.301932 255 255 255 
-0.077207 0.1564 -0.018973 -0.95597 -0.283817 -0.0746318 255 255 255 
-0.093176 0.11821 0.023362 -0.895375 -0.397882 0.199986 255 255 255 
-0.066547 0.171711 -0.042128 0.578948 0.678652 0.451942 255 255 255 
-0.069136 0.172478 -0.039013 0.313212 0.934846 0.167218 255 255 255 
-0.075391 0.179528 -0.052402 -0.752286 0.624605 -0.209606 255 255 255 
-0.023299 0.183243 -0.017923 0.617607 -0.677174 0.399997 255 255 255 
-0.061642 0.15582 0.0111 0.0122817 0.99805 0.0612071 255 255 255 
-0.043046 0.127851 0.016842 0.795219 0.57836 0.182006 255 255 255 
-0.088631 0.094881 0.007934 -0.961335 0.192919 -0.196515 255 255 255 
-0.091715 0.1171 0.030809 -0.910994 -0.412419 -0.000461049 255 255 255 
-0.072084 0.174998 -0.04193 0.0158063 0.944873 0.327055 255 255 255 
-0.069541 0.153085 0.033866 -0.022908 0.880682 0.473153 255 255 255 
-0.040081 0.126284 0.019607 0.782723 0.558174 0.275294 255 255 255 
-0.072823 0.145106 -0.015655 -0.64816 -0.758128 -0.0716296 255 255 255 
-0.08527 0.105518 0.023291 -0.918893 0.171965 0.355056 255 255 255 
-0.076051 0.111038 -0.006272 -0.61218 0.15195 -0.775981 255 255 255 
-0.086538 0.151548 0.025875 -0.584821 0.77467 0.240564 255 255 255 
-0.054642 0.15523 0.012612 0.0757187 0.883394 0.462474 255 255 255 
-0.089408 0.143528 0.030925 -0.966177 0.153197 0.207443 255 255 255 
-0.020891 0.185953 -0.015037 0.70568 0.157084 0.690899 255 255 255 
-0.070864 0.161365 -0.009732 0.0670793 0.85112 0.520667 255 255 255 
-0.07092 0.171367 -0.032764 0.0363967 0.943463 0.329475 255 255 255 
-0.054454 0.152977 0.022505 0.722071 0.662106 0.200574 255 255 255 
-0.089319 0.099547 0.013418 -0.984476 0.164244 -0.0619002 255 255 255 
-0.075429 0.170956 -0.03288 -0.699054 0.682992 0.211768 255 255 255 
-0.092241 0.118168 0.041202 -0.868702 -0.331184 0.368339 255 255 255 
-0.056628 0.152706 0.029629 0.708573 0.568022 0.418659 255 255 255 
-0.057265 0.155063 0.019322 0.461728 0.87854 0.122371 255 255 255 
-0.074108 0.173557 -0.037987 -0.325474 0.897949 0.296234 255 255 255 
-0.066096 0.155325 0.007156 0.0338849 0.984776 -0.170496 255 255 255 
-0.080768 0.143014 -0.001531 -0.732325 0.187993 -0.654491 255 255 255 
-0.091758 0.143346 0.017791 -0.985671 -0.080201 -0.148391 255 255 255 
-0.086825 0.152808 0.015521 -0.604166 0.793392 -0.0742455 255 255 255 
-0.065808 0.167643 -0.030559 0.697991 0.686568 0.203549 255 255 255 
-0.078217 0.16874 -0.033564 -0.933376 0.354078 -0.0586362 255 255 255 
-0.072567 0.147532 0.041714 0.0878458 0.675925 0.731716 255 255 255 
-0.079791 0.103517 -0.006628 -0.747148 0.303113 -0.591517 255 255 255 
-0.076655 0.155098 0.007969 -0.311994 0.924848 -0.217524 255 255 255 
-0.07526 0.149386 0.039176 -0.163766 0.790238 0.590512 255 255 255 
-0.02592 0.182728 -0.013541 0.871637 -0.468073 0.145453 255 255 255 
-0.067984 0.169748 -0.031627 0.369749 0.881497 0.293682 255 255 255 
-0.059582 0.156233 0.007921 -0.251605 0.967808 0.00651421 255 255 255 
-0.090759 0.142234 0.026008 -0.981037 -0.0749844 0.178726 255 255 255 
-0.046548 0.133208 0.01689 0.874006 0.470419 0.121732 255 255 255 
-0.024107 0.183809 -0.011545 0.844394 -0.160627 0.511075 255 255 255 
-0.08533 0.153399 0.020378 -0.467971 0.87617 0.115456 255 255 255 
-0.047766 0.13302 0.022874 0.847759 0.425227 0.316997 255 255 255 
-0.063542 0.163321 -0.025913 0.798159 0.573869 0.183345 255 255 255 
-0.066605 0.164774 -0.020671 0.552909 0.746257 0.370665 255 255 255 
-0.068504 0.16732 -0.02396 0.365707 0.873142 0.322306 255 255 255 
-0.072759 0.169659 -0.027013 -0.150662 0.89505 0.419745 255 255 255 
-0.045078 0.131244 0.011146 0.873129 0.482829 -0.0672409 255 255 255 
-0.05242 0.153101 0.012927 0.534646 0.572574 0.62154 255 255 255 
-0.07036 0.16907 -0.026144 0.0836018 0.917916 0.387867 255 255 255 
-0.093281 0.126911 0.013505 -0.969893 0.12878 -0.206697 255 255 255 
-0.087405 0.10594 0.013646 -0.98319 0.134759 -0.1232 255 255 255 
-0.062099 0.154067 0.030837 0.238067 0.894873 0.377528 255 255 255 
-0.045852 0.12073 0.027665 0.831372 0.0732741 0.550865 255 255 255 
-0.089607 0.139711 0.029309 -0.99329 0.0510618 0.103763 255 255 255 
-0.053323 0.152735 0.016214 0.723298 0.634526 0.272427 255 255 255 
-0.033674 0.177744 -0.00818 -0.613568 0.777098 0.140187 255 255 255 
-0.074489 0.156494 -0.002595 -0.658482 0.668193 0.346296 255 255 255 
-0.046756 0.132843 0.008121 0.882254 0.4545 -0.122708 255 255 255 
-0.08497 0.153223 0.012654 -0.499965 0.841245 -0.205771 255 255 255 
-0.088761 0.097037 0.021079 -0.948605 0.191485 0.251955 255 255 255 
-0.038671 0.160702 -0.012358 -0.381116 -0.199873 -0.902664 255 255 255 
-0.07689 0.130419 -0.006957 -0.357895 0.116653 -0.926447 255 255 255 
-0.066916 0.122789 -0.008908 -0.072847 0.0120256 -0.997271 255 255 255 
-0.085856 0.097025 0.027415 -0.844412 0.202974 0.495751 255 255 255 
-0.080379 0.097801 0.033646 -0.715307 0.0465895 0.697255 255 255 255 
-0.087406 0.102052 0.02202 -0.895603 0.265841 0.356684 255 255 255 
-0.075729 0.10354 0.036071 -0.645414 0.0035278 0.763824 255 255 255 
-0.051815 0.163926 0.001749 -0.592465 0.781978 0.193638 255 255 255 
-0.078849 0.118674 0.050623 -0.39158 -0.308751 0.866798 255 255 255 
-0.075537 0.159771 -0.010439 -0.758354 0.523579 0.388284 255 255 255 
-0.08005 0.116704 0.048762 -0.338542 -0.369354 0.865429 255 255 255 
-0.082404 0.121866 0.049365 -0.329722 -0.268966 0.904953 255 255 255 
-0.092238 0.124885 0.040787 -0.924599 0.238674 0.296903 255 255 255 
-0.085919 0.142634 0.03985 -0.703113 0.547462 0.453782 255 255 255 
-0.089431 0.147306 0.027695 -0.908192 0.271605 0.318463 255 255 255 
-0.085986 0.146709 0.034827 -0.595144 0.677644 0.431974 255 255 255 
-0.083299 0.149608 0.033741 -0.460418 0.754411 0.467846 255 255 255 
-0.088764 0.119449 0.04656 -0.639136 -0.226035 0.735128 255 255 255 
-0.077693 0.17368 -0.041479 -0.57421 0.770646 0.276383 255 255 255 
-0.078936 0.148172 0.039463 -0.327014 0.742781 0.584242 255 255 255 
-0.086605 0.132268 0.046783 -0.72643 0.278875 0.628114 255 255 255 
-0.092654 0.12084 0.04163 -0.909113 -0.14968 0.388728 255 255 255 
-0.089771 0.129049 0.043023 -0.842357 0.329025 0.426822 255 255 255 
-0.083702 0.122264 -0.00373 -0.624645 -0.153189 -0.765737 255 255 255 
-0.081455 0.130122 0.052118 -0.415148 0.0830563 0.905954 255 255 255 
-0.078598 0.174416 -0.046608 -0.9361 0.0889313 -0.340306 255 255 255 
-0.082228 0.145138 0.0406 -0.470169 0.67763 0.565473 255 255 255 
-0.091132 0.122821 0.044115 -0.81876 0.0331346 0.573178 255 255 255 
-0.046076 0.168197 0.000737 -0.484564 0.768302 0.418222 255 255 255 
-0.087829 0.143515 0.035708 -0.820021 0.471565 0.324335 255 255 255 
-0.086991 0.138123 0.042317 -0.787221 0.38082 0.485036 255 255 255 
-0.083804 0.125611 0.05044 -0.564547 -0.114714 0.81739 255 255 255 
-0.088564 0.116245 0.045393 -0.613182 -0.422775 0.667285 255 255 255 
-0.083883 0.133315 0.049114 -0.537582 0.337214 0.772847 255 255 255 
-0.076003 0.163613 -0.018021 -0.820966 0.497024 0.281037 255 255 255 
-0.083799 0.102907 0.028038 -0.816794 0.154429 0.555877 255 255 255 
-0.088252 0.126927 0.046141 -0.75758 0.115499 0.642443 255 255 255 
-0.079127 0.106199 0.032051 -0.767177 -0.206204 0.607388 255 255 255 
-0.088206 0.094486 0.023744 -0.930084 0.208289 0.302588 255 255 255 
-0.08911 0.138514 0.037659 -0.957704 0.200817 0.206098 255 255 255 
-0.021416 0.179777 -0.021733 0.794822 -0.0861058 0.600703 255 255 255 
-0.060484 0.15568 0.004334 -0.310049 0.855993 -0.413698 255 255 255 
-0.086389 0.121685 0.048412 -0.541941 -0.100022 0.834443 255 255 255 
-0.074084 0.149877 -0.03261 -0.823603 -0.562422 -0.0732044 255 255 255 
-0.083837 0.139279 0.044894 -0.612897 0.49393 0.616758 255 255 255 
-0.086154 0.127356 0.048564 -0.634522 0.00329915 0.772898 255 255 255 
-0.076424 0.157363 -0.009035 -0.874246 0.41495 0.252012 255 255 255 
-0.084151 0.12955 0.050484 -0.596161 0.153508 0.788053 255 255 255 
-0.081704 0.101672 0.03094 -0.741694 0.106569 0.662218 255 255 255 
-0.086253 0.101068 0.025414 -0.864784 0.245804 0.437869 255 255 255 
-0.080945 0.139036 0.047359 -0.336347 0.578369 0.743209 255 255 255 
-0.088361 0.149967 0.026044 -0.683879 0.604537 0.408466 255 255 255 
-0.083578 0.120526 0.049177 -0.350827 -0.269663 0.896773 255 255 255 
-0.014656 0.174565 -0.025973 0.549847 0.310862 0.775263 255 255 255 
-0.07379 0.120167 -0.007885 -0.271389 -0.141548 -0.952004 255 255 255 
-0.088366 0.113619 0.005823 -0.785958 -0.50155 -0.361549 255 255 255 
-0.077697 0.170279 -0.043118 0.0879372 -0.995797 0.0256085 255 255 255 
-0.043793 0.169555 -0.007303 -0.749546 0.544271 -0.376762 255 255 255 
-0.077587 0.177179 -0.050221 -0.766916 -0.206399 -0.60765 255 255 255 
-0.075641 0.159304 -0.026908 -0.904071 -0.395411 -0.162189 255 255 255 
-0.072303 0.151867 -0.041544 -0.809264 -0.433335 -0.396626 255 255 255 
-0.08956 0.128517 0.004546 -0.888086 0.113959 -0.445328 255 255 255 
-0.076987 0.153694 -0.002297 -0.868467 0.467853 -0.163947 255 255 255 
-0.070122 0.168826 -0.051174 -0.577063 -0.0702377 -0.813674 255 255 255 
-0.04807 0.12493 -0.008408 0.224 0.681318 -0.696872 255 255 255 
-0.073387 0.154634 -0.029944 -0.976898 -0.0543249 -0.206688 255 255 255 
-0.080066 0.150396 0.000605 -0.815235 0.296767 -0.497314 255 255 255 
-0.083109 0.102654 -0.003293 -0.814175 0.281025 -0.508079 255 255 255 
-0.075428 0.152012 -0.014394 -0.959056 -0.264776 -0.100522 255 255 255 
-0.091004 0.148857 0.021507 -0.926154 0.316791 0.204652 255 255 255 
-0.03952 0.173859 -0.007575 -0.574325 0.816821 -0.0543548 255 255 255 
-0.089641 0.138419 0.034142 -0.974145 0.197135 0.110356 255 255 255 
-0.092601 0.130187 0.025184 -0.924357 0.350682 0.150285 255 255 255 
-0.092281 0.127621 0.029752 -0.97023 0.203626 0.131115 255 255 255 
-0.0902 0.116575 0.005675 -0.828599 -0.347607 -0.438854 255 255 255 
-0.071724 0.146174 -0.021568 -0.623587 -0.747065 -0.230288 255 255 255 
-0.057521 0.158776 0.004162 -0.540865 0.827574 -0.150287 255 255 255 
-0.080959 0.109267 -0.002019 -0.769974 0.183277 -0.611188 255 255 255 
-0.07765 0.15658 -0.016599 -0.958922 -0.25348 -0.12734 255 255 255 
-0.078876 0.15347 0.003988 -0.656269 0.694963 -0.293831 255 255 255 
-0.073503 0.168719 -0.044792 -0.761247 -0.305159 -0.572173 255 255 255 
-0.07913 0.167366 -0.035506 -0.882028 -0.430822 -0.190837 255 255 255 
-0.067684 0.165336 -0.055466 -0.674697 0.0333811 -0.73734 255 255 255 
-0.032748 0.177599 -0.011627 -0.611 0.781881 0.123856 255 255 255 
-0.088875 0.151694 0.020087 -0.740721 0.659964 0.125622 255 255 255 
-0.077153 0.173787 -0.047868 -0.623552 -0.446866 -0.641477 255 255 255 
-0.078578 0.164206 -0.031826 -0.988464 -0.141794 0.0532374 255 255 255 
-0.087041 0.130589 0.000912 -0.725579 0.24682 -0.642352 255 255 255 
-0.090009 0.132781 0.005922 -0.903065 0.279407 -0.326199 255 255 255 
-0.092233 0.131954 0.015431 -0.957168 0.279281 -0.0763681 255 255 255 
-0.04864 0.164725 -0.005059 -0.743341 0.310992 -0.592223 255 255 255 
-0.086795 0.138507 0.004558 -0.807638 0.34812 -0.475954 255 255 255 
-0.09299 0.130923 0.019919 -0.948686 0.315477 -0.0216515 255 255 255 
-0.091282 0.133119 0.024689 -0.928193 0.329215 0.17342 255 255 255 
-0.090242 0.13576 0.014149 -0.969508 0.194354 -0.149266 255 255 255 
-0.061569 0.170849 -0.061679 0.594986 0.097306 -0.797824 255 255 255 
-0.06607 0.165578 -0.058644 -0.365138 -0.191996 -0.91094 255 255 255 
-0.02454 0.180059 -0.018727 0.638751 -0.473822 0.60621 255 255 255 
-0.016132 0.182988 -0.026037 0.622028 -0.291006 0.726909 255 255 255 
-0.089146 0.136505 0.025953 -0.991714 0.0348612 0.123642 255 255 255 
-0.090377 0.132525 0.031083 -0.962283 0.260684 0.0778171 255 255 255 
-0.090795 0.138552 0.020563 -0.992054 -0.0290267 0.122419 255 255 255 
-0.094238 0.126154 0.022201 -0.982033 0.124647 0.14168 255 255 255 
-0.090337 0.131198 0.038139 -0.936654 0.254068 0.241101 255 255 255 
-0.06551 0.158573 -0.0556 0.460092 -0.747431 -0.479231 255 255 255 
-0.07741 0.162605 -0.020755 -0.959042 0.228309 0.16767 255 255 255 
-0.04858 0.166892 -0.002526 -0.590846 0.806333 -0.0269753 255 255 255 
-0.076923 0.153514 -0.009079 -0.997731 -0.0132518 -0.0660174 255 255 255 
-0.067751 0.157348 -0.053982 -0.483764 -0.629885 -0.607632 255 255 255 
-0.055474 0.160502 0.001376 -0.684559 0.725494 -0.0709734 255 255 255 
-0.066643 0.160409 -0.056843 -0.449579 -0.332245 -0.829151 255 255 255 
-0.0782 0.160732 -0.024 -0.982882 -0.16602 -0.0798759 255 255 255 
-0.068383 0.159802 -0.054209 -0.747964 -0.407288 -0.524086 255 255 255 
-0.070872 0.116116 -0.007956 -0.352296 0.0648823 -0.933637 255 255 255 
-0.069781 0.159386 -0.049418 -0.846016 -0.15763 -0.509323 255 255 255 
-0.0787 0.173139 -0.04272 -0.57421 0.770646 0.276383 255 255 255 
-0.083212 0.150721 0.004213 -0.57301 0.690452 -0.441515 255 255 255 
-0.087439 0.133749 0.002397 -0.799924 0.251113 -0.545035 255 255 255 
-0.073243 0.152313 -0.035704 -0.965213 -0.105442 -0.239263 255 255 255 
-0.074551 0.172187 -0.047551 -0.653428 -0.367046 -0.662049 255 255 255 
-0.074982 0.154078 -0.018974 -0.958922 -0.25348 -0.12734 255 255 255 
-0.091556 0.131963 0.010638 -0.92576 0.274047 -0.260512 255 255 255 
-0.073679 0.14786 -0.020236 -0.757225 -0.51715 -0.398956 255 255 255 
-0.09131 0.148486 0.01627 -0.936833 0.317743 -0.146229 255 255 255 
-0.09085 0.146256 0.014809 -0.967471 0.038362 -0.250057 255 255 255 
-0.068544 0.17513 -0.057188 -0.450219 -0.195143 -0.871333 255 255 255 
-0.090206 0.149478 0.013035 -0.811071 0.471166 -0.346651 255 255 255 
-0.074578 0.15164 -0.028648 -0.911096 -0.410994 0.0314226 255 255 255 
-0.089491 0.143926 0.012488 -0.88889 -0.0583572 -0.454388 255 255 255 
-0.077388 0.146564 -0.004354 -0.86665 0.00220591 -0.498911 255 255 255 
-0.072896 0.15835 -0.034109 -0.934216 -0.208086 -0.289724 255 255 255 
-0.076041 0.156631 -0.02142 -0.911833 -0.319008 -0.258447 255 255 255 
-0.090012 0.150833 0.015753 -0.69757 0.708902 -0.104183 255 255 255 
-0.071157 0.163351 -0.045361 -0.422713 -0.318671 -0.848388 255 255 255 
-0.071351 0.157271 -0.042183 -0.831969 0.093531 0.546881 255 255 255 
-0.073548 0.161208 -0.035288 -0.879355 -0.409643 -0.242751 255 255 255 
-0.062359 0.175448 -0.061486 0.752017 0.352717 -0.556831 255 255 255 
-0.078579 0.140501 -0.004603 -0.593767 0.128639 -0.794288 255 255 255 
-0.091161 0.141444 0.015674 -0.973268 -0.0822354 -0.214444 255 255 255 
-0.074639 0.143985 -0.00715 -0.515252 -0.300459 -0.802646 255 255 255 
-0.083448 0.133933 -0.001687 -0.664094 0.289269 -0.689422 255 255 255 
-0.075805 0.151345 -0.019881 -0.910743 -0.33928 -0.235451 255 255 255 
-0.074924 0.15273 -0.019397 -0.944092 -0.292058 -0.152947 255 255 255 
-0.088586 0.146059 0.009878 -0.853899 -0.00816954 -0.520375 255 255 255 
-0.08561 0.147125 0.006598 -0.801434 0.157505 -0.576971 255 255 255 
-0.087511 0.150615 0.010152 -0.751351 0.500634 -0.429927 255 255 255 
-0.07461 0.147278 -0.014172 -0.885199 -0.447221 -0.128122 255 255 255 
-0.09149 0.145432 0.022277 -0.973352 0.154583 0.169382 255 255 255 
-0.09438 0.121839 0.017904 -0.990997 -0.110087 -0.0762003 255 255 255 
-0.089698 0.139713 0.013775 -0.923971 -0.0785524 -0.374309 255 255 255 
-0.077135 0.151512 -0.005582 -0.962559 0.186904 -0.196333 255 255 255 
-0.051121 0.163741 -0.002664 -0.690796 0.468105 -0.551071 255 255 255 
-0.086443 0.127674 -0.001486 -0.71392 0.193077 -0.673082 255 255 255 
-0.069606 0.154908 -0.050189 -0.504614 -0.64942 -0.568874 255 255 255 
-0.082732 0.141969 0.001253 -0.780957 0.227263 -0.581772 255 255 255 
-0.072618 0.143681 -0.010987 -0.598717 -0.709165 -0.372322 255 255 255 
-0.077677 0.16611 -0.036777 -0.987716 -0.149797 -0.0444705 255 255 255 
-0.071057 0.154769 -0.045779 -0.824918 -0.337292 -0.453591 255 255 255 
-0.092332 0.125239 0.009159 -0.946811 0.079248 -0.31188 255 255 255 
-0.018686 0.186896 -0.020249 0.835333 -0.202114 0.511243 255 255 255 
-0.060459 0.117556 -0.011355 -0.0234222 0.164796 -0.98605 255 255 255 
-0.017766 0.185723 -0.023049 0.891704 0.129035 0.433837 255 255 255 
-0.015451 0.185976 -0.024796 -0.00158448 -0.865219 0.501391 255 255 255 
-0.01322 0.183972 -0.027519 0.84906 0.224335 0.4783 255 255 255 
-0.063117 0.154254 0.002973 0.190712 0.878476 -0.438075 255 255 255 
-0.011097 0.182023 -0.028042 0.224129 -0.229585 0.947131 255 255 255 
-0.056996 0.157417 0.000602 -0.662493 0.678162 -0.318118 255 255 255 
-0.058698 0.151373 -0.000658 0.0202529 0.583304 -0.812002 255 255 255 
-0.012172 0.181251 -0.029061 0.224129 -0.229585 0.947131 255 255 255 
-0.061114 0.153052 0.001 0.292275 0.619976 -0.728152 255 255 255 
-0.013691 0.179147 -0.028126 0.460497 0.0546381 0.885978 255 255 255 
-0.061994 0.150281 -0.00163 0.454625 0.738866 -0.497387 255 255 255 
-0.059467 0.14744 -0.001889 0.508544 0.450496 -0.733783 255 255 255 
-0.060254 0.143391 -0.003791 0.582027 0.208319 -0.786033 255 255 255 
-0.068136 0.180061 -0.058816 -0.47134 0.150433 -0.869027 255 255 255 
-0.056215 0.141392 -0.002803 0.480369 0.268607 -0.834923 255 255 255 
-0.060127 0.120414 -0.009379 0.0389626 0.228617 -0.972737 255 255 255 
-0.053199 0.136729 -0.001658 0.644063 0.296159 -0.705317 255 255 255 
-0.04729 0.130554 0.001691 0.605633 0.653411 -0.454163 255 255 255 
-0.054388 0.134049 -0.003992 0.507788 0.228095 -0.830737 255 255 255 
-0.050539 0.133367 -0.001087 0.662645 0.377979 -0.646555 255 255 255 
-0.067788 0.180889 -0.058191 -0.597501 0.195897 -0.777571 255 255 255 
-0.048982 0.129806 -0.001323 0.568398 0.526278 -0.63242 255 255 255 
-0.05359 0.124375 -0.007347 0.00732634 0.626691 -0.779234 255 255 255 
-0.065047 0.179991 -0.059759 0.540338 0.787956 -0.29523 255 255 255 
-0.052124 0.129298 -0.004119 0.358107 0.362156 -0.860583 255 255 255 
-0.045334 0.128915 0.001582 0.501398 0.779799 -0.374851 255 255 255 
-0.063021 0.17811 -0.060394 0.554217 0.769064 -0.318409 255 255 255 
-0.050793 0.127165 -0.004818 0.182887 0.534322 -0.825259 255 255 255 
-0.046459 0.12724 -0.004884 0.369741 0.693015 -0.618888 255 255 255 
-0.027597 0.169798 -0.01817 -0.594981 0.291156 -0.74915 255 255 255 
-0.023456 0.168247 -0.018823 -0.809861 -0.35413 -0.467672 255 255 255 
-0.065156 0.140345 -0.007685 0.284668 -0.367065 -0.885566 255 255 255 
-0.03362 0.156915 -0.011025 -0.0219879 -0.630293 -0.776046 255 255 255 
-0.084747 0.110783 0.039488 -0.362788 -0.918459 0.157535 255 255 255 
-0.082507 0.127655 -0.00468 -0.547709 0.124145 -0.827407 255 255 255 
-0.042819 0.162202 -0.010338 -0.57175 0.0203019 -0.820177 255 255 255 
-0.065594 0.176657 -0.060505 -0.431672 0.111169 -0.895154 255 255 255 
-0.034151 0.174428 -0.013313 -0.382296 0.82189 -0.422312 255 255 255 
-0.050342 0.155462 -0.005193 -0.517853 -0.0718412 -0.852447 255 255 255 
-0.061084 0.133862 -0.007225 0.318933 0.127662 -0.93914 255 255 255 
-0.061081 0.168338 -0.059192 0.502698 -0.317863 -0.803902 255 255 255 
-0.067945 0.114936 -0.009511 -0.245453 0.109157 -0.963243 255 255 255 
-0.071048 0.151611 -0.044679 -0.732874 -0.514245 -0.445475 255 255 255 
-0.056572 0.124803 -0.007189 0.113046 0.412854 -0.903755 255 255 255 
-0.079238 0.120554 -0.005674 -0.44129 -0.170061 -0.881103 255 255 255 
-0.079335 0.125607 -0.006118 -0.396077 -0.00675068 -0.918193 255 255 255 
-0.056896 0.133987 -0.005627 0.502538 0.230375 -0.833296 255 255 255 
-0.044854 0.15746 -0.008673 -0.466585 -0.2254 -0.855274 255 255 255 
-0.050077 0.149977 -0.003642 -0.148726 -0.455446 -0.877752 255 255 255 
-0.053993 0.144987 -0.001109 0.227202 -0.230053 -0.946285 255 255 255 
-0.027113 0.173322 -0.018539 -0.774042 0.597965 -0.20808 255 255 255 
-0.06506 0.134521 -0.00809 0.107257 0.0327754 -0.993691 255 255 255 
-0.075829 0.142446 -0.005809 -0.620861 -0.117857 -0.775011 255 255 255 
-0.037292 0.164491 -0.013627 -0.318266 -0.229893 -0.919704 255 255 255 
-0.019819 0.165095 -0.017609 -0.112125 -0.831027 -0.544814 255 255 255 
-0.063921 0.127742 -0.008549 0.122347 0.111059 -0.986254 255 255 255 
-0.045643 0.154669 -0.007297 -0.283859 -0.380806 -0.880006 255 255 255 
-0.056992 0.143119 -0.00224 0.44452 0.199035 -0.873377 255 255 255 
-0.080651 0.131199 -0.00444 -0.540902 0.181552 -0.821258 255 255 255 
-0.056544 0.128509 -0.006201 0.293986 0.202658 -0.934078 255 255 255 
-0.067391 0.118897 -0.00873 -0.187942 0.0597367 -0.980362 255 255 255 
-0.068535 0.139294 -0.007805 0.0691145 -0.175316 -0.982083 255 255 255 
-0.010244 0.178958 -0.029539 -0.891589 -0.347326 0.290576 255 255 255 
-0.075273 0.126801 -0.008024 -0.346463 0.0403959 -0.937193 255 255 255 
-0.08736 0.112483 0.042049 -0.564061 -0.737391 0.371605 255 255 255 
-0.06425 0.16045 -0.057041 -0.0772392 -0.489675 -0.868477 255 255 255 
-0.023854 0.161645 -0.014504 0.206636 -0.675991 -0.707346 255 255 255 
-0.075996 0.117141 -0.006558 -0.383226 -0.083166 -0.919903 255 255 255 
-0.039161 0.157189 -0.010581 -0.142782 -0.504946 -0.85126 255 255 255 
-0.063429 0.171854 -0.061412 0.594986 0.097306 -0.797824 255 255 255 
-0.070595 0.129948 -0.008763 -0.100761 0.0830946 -0.991435 255 255 255 
-0.079739 0.136069 -0.004148 -0.555332 0.179096 -0.812115 255 255 255 
-0.03098 0.166347 -0.016241 -0.0946095 -0.281645 -0.954843 255 255 255 
-0.08809 0.111355 0.018516 -0.749718 -0.628678 0.20661 255 255 255 
-0.072036 0.111079 0.045361 0.102755 -0.905783 0.411095 255 255 255 
-0.03336 0.169864 -0.015449 -0.625741 0.256026 -0.736816 255 255 255 
-0.045752 0.163408 -0.008178 -0.641652 0.0983642 -0.760662 255 255 255 
-0.071395 0.124688 -0.008594 -0.158449 -0.00278475 -0.987363 255 255 255 
-0.021163 0.174919 -0.021977 0.420815 -0.201051 0.884587 255 255 255 
-0.081206 0.112051 -0.000883 -0.612356 -0.243528 -0.75214 255 255 255 
-0.068876 0.110222 0.039005 0.41968 -0.76962 0.4812 255 255 255 
-0.087773 0.111814 0.037144 -0.564037 -0.825706 -0.0084525 255 255 255 
-0.084341 0.11388 0.046513 -0.344372 -0.63128 0.694906 255 255 255 
-0.073796 0.108956 0.039217 0.076701 -0.838037 0.540196 255 255 255 
-0.080895 0.109672 0.03791 -0.349412 -0.909439 0.225459 255 255 255 
-0.089823 0.113872 0.032845 -0.732148 -0.656701 -0.180841 255 255 255 
-0.07845 0.109888 0.042518 -0.156015 -0.907306 0.390455 255 255 255 
-0.075824 0.107949 0.037129 -0.242417 -0.849145 0.469241 255 255 255 
-0.07311 0.148472 -0.028748 -0.576985 -0.766875 -0.281054 255 255 255 
-0.089804 0.114981 0.042772 -0.700211 -0.56613 0.434974 255 255 255 
-0.069087 0.11205 0.04532 0.463293 -0.799715 0.381859 255 255 255 
-0.071812 0.148613 -0.034639 -0.389999 -0.905221 -0.168745 255 255 255 
-0.091189 0.115889 0.024706 -0.847835 -0.498274 0.181381 255 255 255 
-0.088828 0.113592 0.023874 -0.705882 -0.670153 0.2294 255 255 255 
-0.071303 0.113254 0.049445 0.174396 -0.746682 0.641913 255 255 255 
-0.077209 0.107159 0.034738 -0.611213 -0.402083 0.681724 255 255 255 
-0.074898 0.114589 0.050776 -0.267567 -0.569361 0.777326 255 255 255 
-0.080469 0.11358 0.046643 -0.19332 -0.644917 0.739398 255 255 255 
-0.088979 0.114509 0.028446 -0.672738 -0.739873 -0.003343 255 255 255 
-0.082711 0.11649 0.048519 -0.26831 -0.339489 0.901531 255 255 255 
-0.08523 0.112007 0.030417 -0.511562 -0.857627 0.052725 255 255 255 
-0.085645 0.111317 0.034235 -0.427951 -0.903183 -0.0334365 255 255 255 
-0.07994 0.109167 0.03412 -0.609184 -0.777891 0.154206 255 255 255 
-0.068603 0.149923 -0.040051 0.275867 -0.956766 -0.0921809 255 255 255 
-0.085176 0.117068 0.048139 -0.299312 -0.329658 0.895398 255 255 255 
-0.075165 0.111543 0.046707 -0.0903348 -0.824122 0.559163 255 255 255 
-0.065284 0.155924 -0.049866 0.0494277 -0.818022 -0.57306 255 255 255 
-0.066468 0.148715 -0.031579 0.321952 -0.896725 -0.303697 255 255 255 
-0.062096 0.163883 -0.058386 -0.365138 -0.191996 -0.91094 255 255 255 
-0.063275 0.152457 -0.032222 0.871184 -0.468993 -0.145203 255 255 255 
-0.043756 0.147734 -0.002143 0.2456 -0.922903 -0.296532 255 255 255 
-0.065697 0.145616 -0.018975 0.231317 -0.941445 -0.245304 255 255 255 
-0.066714 0.153588 -0.049097 0.304082 -0.835057 -0.458491 255 255 255 
-0.010483 0.166683 -0.021746 -0.985941 0.154386 -0.0639132 255 255 255 
-0.062745 0.163975 -0.059398 -0.365138 -0.191996 -0.91094 255 255 255 
-0.070413 0.141292 -0.008459 -0.313029 -0.350188 -0.882826 255 255 255 
-0.06153 0.140376 -0.006273 0.626822 0.0903335 -0.773908 255 255 255 
-0.011452 0.172206 -0.026845 0.0981623 0.596204 0.796809 255 255 255 
-0.063731 0.16577 -0.060104 -0.379685 -0.29325 -0.877408 255 255 255 
-0.028219 0.157581 -0.010999 0.16101 -0.78971 -0.591975 255 255 255 
-0.018471 0.159677 -0.01117 0.181038 -0.934112 -0.307669 255 255 255 
-0.066701 0.152368 -0.045266 0.230612 -0.916723 -0.326246 255 255 255 
